ply
format ascii 1.0
comment PCL generated
element vertex 3215
property float x
property float y
property float z
element camera 0
property float view_px
property float view_py
property float view_pz
property float x_axisx
property float x_axisy
property float x_axisz
property float y_axisx
property float y_axisy
property float y_axisz
property float z_axisx
property float z_axisy
property float z_axisz
property float focal
property float scalex
property float scaley
property float centerx
property float centery
property int viewportx
property int viewporty
property float k1
property float k2
end_header
329 1 24.6245
329 2 0
329 3 0
329 4 0
329 5 0
329 6 0
329 7 0
329 8 0
329 9 0
329 10 0
329 11 0
329 12 0
329 13 0
329 14 0
329 15 0
329 16 0
329 17 0
329 18 -4.3316002
329 19 2.80691
329 20 0
329 21 33.087601
329 22 0
329 23 0
329 24 0
329 25 15.0855
329 26 0
329 27 4.6456699
329 28 0
329 29 83.926598
329 30 78.3489
329 31 54.7505
329 32 47.152699
329 33 44.957901
329 34 43.7449
329 35 43.5905
329 36 43.399899
329 37 43.2057
329 38 43.3036
329 39 42.282501
329 40 43.922901
329 41 43.6926
329 42 45.1259
329 43 44.935001
329 44 43.895
329 45 44.4664
329 46 44.1805
329 47 45.5881
329 48 43.765701
329 49 44.626598
329 50 44.357601
329 51 44.1721
329 52 43.884499
329 53 43.572601
329 54 44.693802
329 55 44.047298
329 56 44.388802
329 57 44.952499
329 58 45.467098
329 59 45.2845
329 60 45.666
329 61 44.883499
329 62 44.9771
329 63 45.1623
329 64 45.178398
329 65 44.3041
329 66 45.164398
329 67 45.1759
329 68 44.6138
329 69 44.7584
329 70 45.278
329 71 43.5439
329 72 45.198799
329 73 44.492001
329 74 44.882301
329 75 46.1749
329 76 44.821701
329 77 45.668701
329 78 44.586899
329 79 46.5439
329 80 45.4478
329 81 45.516201
329 82 43.958599
329 83 43.776299
329 84 43.8517
329 85 44.384102
329 86 45.5191
329 87 44.471001
329 88 44.874599
329 89 44.6595
329 90 45.592602
329 91 45.0359
329 92 44.904598
329 93 45.497601
329 94 44.898701
329 95 46.350899
329 96 45.527802
329 97 45.134201
329 98 44.569401
329 99 42.893002
329 100 95.733803
329 101 83.220299
329 102 82.308701
329 103 105.582
329 104 157.95799
329 105 98.189796
329 106 85.636597
329 107 99.325798
329 108 88.873398
329 109 99.8685
329 110 80.128304
329 111 96.569801
329 112 82.271202
329 113 84.344498
329 114 81.186996
329 115 87.659103
329 116 112.199
329 117 84.0718
329 118 99.9375
329 119 101.15
329 120 108.703
329 121 114.645
329 122 78.9524
329 123 97.177498
329 124 94.275902
329 125 116.173
329 126 78.836601
329 127 88.842903
329 128 89.776703
329 129 90.9226
329 130 101.095
329 131 75.741096
329 132 91.130402
329 133 90.7631
329 134 94.723701
329 135 96.295898
329 136 110.683
329 137 187.255
329 138 86.186897
329 139 105.118
329 140 81.995399
329 141 97.342598
329 142 85.041801
329 143 83.563797
329 144 110.736
329 145 84.574799
329 146 120.59
329 147 89.971397
329 148 84.052101
329 149 87.8283
329 150 83.3992
329 151 99.073402
329 152 84.4776
329 153 141.87399
329 154 105.804
329 155 98.525497
329 156 97.932701
329 157 95.790604
329 158 120.896
329 159 83.783203
329 160 83.075203
329 161 73.5578
329 162 103.215
329 163 87.783897
329 164 77.3638
329 165 93.037003
329 166 83.274597
329 167 110.578
329 168 80.912804
329 169 102.775
329 170 168.483
329 171 119.931
329 172 124.05
329 173 74.745697
329 174 153.188
329 175 86.912003
329 176 87.028603
329 177 87.464798
329 178 94.5159
329 179 107.258
329 180 92.261597
329 181 99.4953
329 182 86.920601
329 183 130.771
329 184 94.388702
329 185 83.446198
329 186 156.12801
329 187 93.475998
329 188 118.075
329 189 83.8629
329 190 96.703499
329 191 148.936
329 192 100.298
329 193 101.518
329 194 73.425797
329 195 105.841
329 196 87.939201
329 197 94.636101
329 198 107.885
329 199 104.397
329 200 105.599
329 201 88.572998
329 202 103.654
329 203 106.006
329 204 125.134
329 205 97.829498
329 206 90.978302
329 207 123.504
329 208 87.7192
329 209 100.247
329 210 74.201103
329 211 79.490097
329 212 92.184898
329 213 80.688797
329 214 80.849403
329 215 75.507301
329 216 131.50301
329 217 96.308296
329 218 89.966003
329 219 85.502998
329 220 92.195396
329 221 129.49699
329 222 71.104202
329 223 80.927696
329 224 81.869202
329 225 92.351601
329 226 79.398598
329 227 65.634903
329 228 76.304298
329 229 63.428001
329 230 62.9245
329 231 60.558998
329 232 66.1717
329 233 76.013702
329 234 60.5014
329 235 59.230202
329 236 59.712399
329 237 63.234901
329 238 59.354698
329 239 59.024799
329 240 54.482101
329 241 57.060799
329 242 55.1964
329 243 52.365101
329 244 54.6026
329 245 55.103199
329 246 52.174599
329 247 49.853001
329 248 55.055199
329 249 53.2714
329 250 50.464401
329 251 50.660198
329 252 49.917801
329 253 51.307201
329 254 50.358898
329 255 48.8456
329 256 47.613602
329 257 49.963501
329 258 50.902699
329 259 52.072899
329 260 48.458199
329 261 50.7939
329 262 52.3022
329 263 48.2099
329 264 48.679199
329 265 50.5816
329 266 50.105099
329 267 47.790699
329 268 47.9687
329 269 48.6026
329 270 50.031399
329 271 50.620899
329 272 49.686798
329 273 47.340698
329 274 52.007999
329 275 51.945702
329 276 49.5009
329 277 49.130798
329 278 48.749199
329 279 49.395599
329 280 49.779701
329 281 48.684299
329 282 50.350601
329 283 50.177399
329 284 48.054001
329 285 49.6199
329 286 49.121399
329 287 49.981499
329 288 50.333
329 289 47.499699
329 290 50.2033
329 291 50.978298
329 292 50.981701
329 293 48.327702
329 294 46.9767
329 295 50.9314
329 296 50.426601
329 297 50.023399
329 298 49.673599
329 299 49.872799
329 300 50.2337
329 301 49.076099
329 302 50.2938
329 303 49.607601
329 304 49.9804
329 305 50.595001
329 306 52.0327
329 307 51.513401
329 308 51.032101
329 309 49.8456
329 310 49.614201
329 311 51.623402
329 312 51.955799
329 313 49.257801
329 314 48.744099
329 315 49.243
329 316 51.216801
329 317 52.992001
329 318 48.690899
329 319 48.748199
329 320 49.891899
329 321 50.385101
329 322 50.505699
329 323 50.452801
329 324 49.246399
329 325 52.657001
329 326 52.697701
329 327 49.9417
329 328 51.742298
329 329 49.043999
329 330 51.521599
329 331 48.795399
329 332 51.9436
329 333 49.711201
329 334 47.796101
329 335 49.051498
329 336 46.236698
329 337 38.905602
329 338 26
329 339 25.5683
329 340 13.3668
329 341 8.2481298
329 342 0
329 343 0
329 344 0
329 345 0
329 346 0
329 347 0
329 348 0
329 349 0
329 350 0
329 351 22.4571
329 352 19.2463
329 353 0
329 354 0
329 355 0
329 356 0
329 357 0
329 358 0
329 359 -2.5324199
329 360 0
329 361 0
329 362 0
329 363 0
329 364 0
329 365 0
329 366 0
329 367 0
329 368 0
329 369 0
329 370 0
329 371 0
329 372 0
329 373 31.050699
329 374 0
329 375 0
329 376 0
329 377 0
329 378 0
329 379 0
329 380 0
329 381 0
329 382 0
329 383 0
329 384 0
329 385 0
329 386 0
329 387 0
329 388 0
329 389 0
329 390 0
329 391 0
329 392 0
329 393 0
329 394 0
329 395 0
329 396 0
329 397 0
329 398 0
329 399 0
329 400 0
329 401 0
329 402 0
329 403 0
329 404 4.5897298
329 405 0
329 406 0
329 407 0
329 408 0
329 409 -5.5961699
329 410 0
329 411 0
329 412 0
329 413 0
329 414 0
329 415 0
329 416 0
329 417 0
329 418 0
329 419 0
329 420 0
329 421 0
329 422 0
329 423 0
329 424 0
329 425 0
329 426 0
329 427 0
329 428 0
329 429 0
329 430 0
329 431 0
329 432 0
329 433 0
329 434 0
329 435 0
329 436 0
329 437 0
329 438 0
329 439 0
329 440 0
329 441 0
329 442 0
329 443 0
329 444 0
329 445 0
329 446 0
329 447 0
329 448 -4.6510301
329 449 0
329 450 0
329 451 0
329 452 0
329 453 0
329 454 0
329 455 0
329 456 0
329 457 0
329 458 0
329 459 0
329 460 0
329 461 0
329 462 0
329 463 0
329 464 0
329 465 0
329 466 0
329 467 0
329 468 0
329 469 0
329 470 0
329 471 0
329 472 0
329 473 0
329 474 0
329 475 0
329 476 0
329 477 0
329 478 -3.5013101
329 479 0
329 480 0
329 481 0
329 482 0
329 483 0
329 484 0
329 485 0
329 486 0
329 487 16.5233
329 488 0
329 489 0
329 490 0
329 491 0
329 492 0
329 493 0
329 494 0
329 495 0
329 496 0
329 497 0
329 498 0
329 499 0
330 0 0
330 1 126.257
330 2 0
330 3 0
330 4 0
330 5 0
330 6 0
330 7 0
330 8 0
330 9 10.072
330 10 0
330 11 0
330 12 0
330 13 -9.8636799
330 14 0
330 15 0
330 16 0
330 17 0
330 18 0
330 19 0
330 20 0
330 21 10.7046
330 22 0
330 23 0
330 24 16.702801
330 25 0
330 26 7.79599
330 27 100.853
330 28 45.842499
330 29 96.937401
330 30 58.477001
330 31 54.851398
330 32 47.808998
330 33 45.252399
330 34 43.816601
330 35 43.542801
330 36 43.576698
330 37 43.561298
330 38 45.234001
330 39 43.783798
330 40 44.3209
330 41 45.699402
330 42 43.605701
330 43 44.273399
330 44 43.811501
330 45 43.798199
330 46 44.848701
330 47 44.6894
330 48 45.1931
330 49 45.661701
330 50 45.027699
330 51 43.672298
330 52 45.296902
330 53 44.3992
330 54 44.1143
330 55 43.719501
330 56 43.590599
330 57 45.670101
330 58 46.3521
330 59 45.298801
330 60 45.030201
330 61 44.470402
330 62 44.684101
330 63 45.112202
330 64 44.304001
330 65 44.3526
330 66 44.443901
330 67 43.9533
330 68 43.701599
330 69 44.438801
330 70 44.198799
330 71 45.393002
330 72 43.5089
330 73 43.9739
330 74 44.356098
330 75 45.820499
330 76 44.507702
330 77 45.180698
330 78 44.9655
330 79 44.1731
330 80 46.059601
330 81 44.073101
330 82 45.1549
330 83 43.606998
330 84 44.819401
330 85 45.0797
330 86 43.654301
330 87 45.6045
330 88 44.920502
330 89 45.592701
330 90 44.937901
330 91 46.0937
330 92 45.721001
330 93 45.3993
330 94 45.187099
330 95 44.756199
330 96 46.7798
330 97 44.3036
330 98 43.912701
330 99 44.320999
330 100 89.476898
330 101 105.022
330 102 70.908997
330 103 134.56599
330 104 109.882
330 105 108.744
330 106 82.967697
330 107 90.019997
330 108 120.221
330 109 74.446899
330 110 106.803
330 111 84.911598
330 112 107.442
330 113 82.544899
330 114 88.546204
330 115 88.425797
330 116 86.754501
330 117 113.174
330 118 75.029602
330 119 96.235199
330 120 94.588799
330 121 95.313698
330 122 90.110199
330 123 85.787003
330 124 172.62199
330 125 87.985603
330 126 94.198502
330 127 87.0923
330 128 86.959099
330 129 98.357201
330 130 86.943604
330 131 102.33
330 132 88.294998
330 133 106.717
330 134 91.444298
330 135 96.4105
330 136 107.5
330 137 107.395
330 138 143.019
330 139 81.546097
330 140 108.07
330 141 94.255302
330 142 88.372704
330 143 86.249496
330 144 83.624199
330 145 112.183
330 146 87.370697
330 147 91.438797
330 148 82.9198
330 149 90.450104
330 150 113.559
330 151 79.320702
330 152 116.766
330 153 84.021797
330 154 111.946
330 155 90.170898
330 156 85.638298
330 157 126.36
330 158 84.365601
330 159 90.7603
330 160 73.804604
330 161 94.714699
330 162 107.037
330 163 90.675903
330 164 89.155296
330 165 74.338097
330 166 106.311
330 167 84.091797
330 168 86.653702
330 169 101.342
330 170 100.45
330 171 144.759
330 172 80.299599
330 173 93.1455
330 174 84.875
330 175 88.631897
330 176 77.263
330 177 78.878098
330 178 92.220497
330 179 71.2938
330 180 78.928398
330 181 68.556999
330 182 84.774002
330 183 79.857697
330 184 70.379997
330 185 76.810898
330 186 72.176102
330 187 83.2258
330 188 69.287201
330 189 62.821999
330 190 62.027199
330 191 72.815697
330 192 71.189499
330 193 58.221699
330 194 59.263699
330 195 57.391899
330 196 56.018002
330 197 56.0634
330 198 55.566002
330 199 57.061401
330 200 51.359901
330 201 52.348701
330 202 52.6385
330 203 52.226101
330 204 48.962101
330 205 51.270901
330 206 51.063999
330 207 51.082802
330 208 52.1856
330 209 50.605999
330 210 48.775501
330 211 50.635601
330 212 51.819801
330 213 49.985401
330 214 48.806301
330 215 48.560799
330 216 49.495998
330 217 51.451401
330 218 47.304699
330 219 49.486801
330 220 49.385399
330 221 49.523701
330 222 49.914299
330 223 47.601898
330 224 51.706699
330 225 49.120998
330 226 49.253201
330 227 48.627602
330 228 52.001598
330 229 48.4608
330 230 48.7509
330 231 48.385399
330 232 49.623001
330 233 49.0891
330 234 48.273399
330 235 47.632301
330 236 48.5667
330 237 51.281601
330 238 49.612301
330 239 48.442402
330 240 50.962502
330 241 50.306099
330 242 50.349602
330 243 48.170502
330 244 49.973999
330 245 50.848301
330 246 50.2309
330 247 49.272999
330 248 47.627399
330 249 48.0121
330 250 48.372101
330 251 46.679699
330 252 48.239799
330 253 49.6269
330 254 50.202702
330 255 51.606499
330 256 48.751701
330 257 50.175701
330 258 49.5527
330 259 48.1605
330 260 48.1693
330 261 50.153099
330 262 50.791801
330 263 48.7118
330 264 49.667
330 265 48.400101
330 266 49.594002
330 267 49.027901
330 268 48.412701
330 269 50.188702
330 270 49.365398
330 271 50.2897
330 272 47.6161
330 273 49.710602
330 274 48.0261
330 275 51.874901
330 276 48.770901
330 277 49.695999
330 278 49.506199
330 279 49.113998
330 280 52.089802
330 281 48.321499
330 282 50.589901
330 283 48.889801
330 284 49.8116
330 285 47.6493
330 286 48.976501
330 287 50.8237
330 288 48.6199
330 289 51.254002
330 290 47.437
330 291 51.5378
330 292 51.431999
330 293 50.922699
330 294 51.217098
330 295 50.9464
330 296 51.257401
330 297 51.024399
330 298 49.830898
330 299 47.780998
330 300 49.781799
330 301 48.259701
330 302 48.926601
330 303 49.3843
330 304 49.4925
330 305 50.601601
330 306 49.990898
330 307 51.7994
330 308 53.028
330 309 49.841702
330 310 47.695301
330 311 51.490002
330 312 52.695099
330 313 50.092098
330 314 49.181301
330 315 51.157501
330 316 49.379799
330 317 51.560001
330 318 50.2798
330 319 49.624401
330 320 50.108002
330 321 50.971001
330 322 49.553101
330 323 48.8484
330 324 51.9958
330 325 51.527401
330 326 50.4795
330 327 52.789501
330 328 49.731098
330 329 51.725101
330 330 48.219501
330 331 49.705799
330 332 50.101002
330 333 50.0723
330 334 51.124001
330 335 48.466499
330 336 48.345501
330 337 39.589699
330 338 24.416401
330 339 17.1661
330 340 0
330 341 10.0735
330 342 0
330 343 0
330 344 0.69505697
330 345 0
330 346 -0.095435098
330 347 0
330 348 0
330 349 0
330 350 7.0390701
330 351 30.9799
330 352 15.0329
330 353 0
330 354 0
330 355 0
330 356 0
330 357 0
330 358 26.733999
330 359 0
330 360 0
330 361 0
330 362 0
330 363 0
330 364 0
330 365 0
330 366 0
330 367 0
330 368 0
330 369 0
330 370 0
330 371 0
330 372 0
330 373 0
330 374 0
330 375 0
330 376 0
330 377 0
330 378 0
330 379 0
330 380 0
330 381 0
330 382 0
330 383 0
330 384 0
330 385 0
330 386 0
330 387 0
330 388 -9.36378
330 389 0
330 390 0
330 391 0
330 392 0
330 393 0
330 394 0
330 395 0
330 396 0
330 397 0
330 398 0
330 399 0
330 400 0
330 401 0
330 402 0
330 403 0
330 404 0
330 405 0
330 406 0
330 407 0
330 408 0
330 409 0
330 410 0
330 411 0
330 412 0
330 413 0
330 414 0
330 415 0
330 416 0
330 417 0
330 418 0
330 419 0
330 420 0
330 421 0
330 422 0
330 423 0
330 424 0
330 425 0
330 426 0
330 427 0
330 428 0
330 429 0
330 430 0
330 431 0
330 432 0
330 433 0
330 434 0
330 435 0
330 436 0
330 437 0
330 438 0
330 439 0
330 440 0
330 441 0
330 442 0
330 443 0
330 444 0
330 445 0
330 446 0
330 447 0
330 448 0
330 449 0
330 450 0
330 451 0
330 452 0
330 453 41.796501
330 454 0
330 455 0
330 456 0
330 457 0
330 458 0
330 459 0
330 460 -4.5007801
330 461 0
330 462 0
330 463 0
330 464 0
330 465 27.6738
330 466 0
330 467 0
330 468 0
330 469 0
330 470 0
330 471 0
330 472 0
330 473 0
330 474 0
330 475 0
330 476 0
330 477 0
330 478 0
330 479 0
330 480 0
330 481 0
330 482 20.2288
330 483 0
330 484 0
330 485 31.2519
330 486 0
330 487 0
330 488 0
330 489 0
330 490 0
330 491 0
330 492 0
330 493 0
330 494 0
330 495 0
330 496 0
330 497 0
330 498 0
330 499 47.990601
331 0 0
331 1 0
331 2 0
331 3 0
331 4 0
331 5 0
331 6 0
331 7 0
331 8 0
331 9 25.578899
331 10 13.0868
331 11 0
331 12 0
331 13 0
331 14 27.1514
331 15 0
331 16 0
331 17 0
331 18 0
331 19 13.153
331 20 0
331 21 0
331 22 0
331 23 18.344299
331 24 0
331 25 14.628
331 26 138.897
331 27 8.8958702
331 28 14.943
331 29 94.405197
331 30 63.822601
331 31 57.397499
331 32 48.5303
331 33 44.952801
331 34 43.373699
331 35 43.460499
331 36 43.514801
331 37 43.811699
331 38 43.867199
331 39 45.157299
331 40 44.312599
331 41 44.4133
331 42 43.9673
331 43 44.6199
331 44 44.125
331 45 43.870602
331 46 44.726799
331 47 44.575802
331 48 44.209801
331 49 43.945999
331 50 43.3465
331 51 44.2001
331 52 44.354
331 53 44.732498
331 54 42.7621
331 55 43.474998
331 56 43.9189
331 57 43.964401
331 58 45.774899
331 59 45.0662
331 60 45.168999
331 61 44.807999
331 62 45.540901
331 63 44.448299
331 64 44.973499
331 65 45.347801
331 66 43.528599
331 67 44.0895
331 68 43.412899
331 69 45.0858
331 70 44.0354
331 71 45.962799
331 72 46.065498
331 73 44.294998
331 74 46.1292
331 75 45.293999
331 76 46.036999
331 77 44.629799
331 78 44.5741
331 79 46.5242
331 80 44.8881
331 81 46.193401
331 82 43.451302
331 83 45.173199
331 84 44.371799
331 85 46.0126
331 86 44.335499
331 87 44.8764
331 88 46.770802
331 89 44.814602
331 90 45.491501
331 91 44.880001
331 92 45.865398
331 93 46.772301
331 94 45.460098
331 95 45.525902
331 96 44.5868
331 97 45.900799
331 98 43.723701
331 99 43.884399
331 100 82.2854
331 101 88.414001
331 102 83.8358
331 103 88.491096
331 104 141.724
331 105 91.244202
331 106 88.453598
331 107 87.939301
331 108 86.353401
331 109 99.156197
331 110 80.4384
331 111 101.996
331 112 85.1754
331 113 86.108002
331 114 89.573097
331 115 79.902901
331 116 131.657
331 117 75.982697
331 118 86.9235
331 119 86.9002
331 120 111.943
331 121 98.420197
331 122 77.670303
331 123 103.831
331 124 86.016098
331 125 137.774
331 126 79.7043
331 127 81.306702
331 128 90.112396
331 129 83.482002
331 130 87.502502
331 131 74.571198
331 132 83.455597
331 133 77.091904
331 134 93.2631
331 135 86.135498
331 136 86.842598
331 137 130.231
331 138 79.824203
331 139 97.386101
331 140 71.276299
331 141 95.069603
331 142 79.061897
331 143 70.177101
331 144 78.368896
331 145 66.709198
331 146 83.1502
331 147 67.673203
331 148 67.030296
331 149 68.372398
331 150 59.030701
331 151 65.514702
331 152 57.937
331 153 64.3545
331 154 61.321499
331 155 59.77
331 156 58.737202
331 157 53.349899
331 158 57.060799
331 159 53.427601
331 160 53.358002
331 161 51.178699
331 162 54.473499
331 163 53.101601
331 164 51.867802
331 165 50.945599
331 166 50.598801
331 167 50.826199
331 168 46.942101
331 169 50.1143
331 170 50.605099
331 171 48.789299
331 172 49.184299
331 173 47.617802
331 174 49.065601
331 175 48.215199
331 176 48.753201
331 177 47.719101
331 178 49.880798
331 179 47.585201
331 180 48.5797
331 181 49.0037
331 182 47.828499
331 183 47.238098
331 184 47.119301
331 185 46.7411
331 186 49.675701
331 187 48.159698
331 188 47.726101
331 189 48.197399
331 190 49.239601
331 191 48.029999
331 192 48.585602
331 193 48.2915
331 194 47.5522
331 195 48.8255
331 196 48.868698
331 197 47.618099
331 198 47.6343
331 199 48.181099
331 200 46.367199
331 201 48.700699
331 202 47.922501
331 203 46.7384
331 204 50.079498
331 205 47.141899
331 206 46.263901
331 207 48.907799
331 208 48.528801
331 209 47.947201
331 210 46.771801
331 211 48.407799
331 212 47.052799
331 213 48.7057
331 214 47.372601
331 215 47.736
331 216 47.3162
331 217 49.7244
331 218 48.506001
331 219 47.621601
331 220 50.739799
331 221 48.5271
331 222 47.320301
331 223 47.985901
331 224 49.846401
331 225 48.910599
331 226 48.562401
331 227 48.666599
331 228 49.545898
331 229 49.647701
331 230 47.557899
331 231 48.6716
331 232 47.945099
331 233 47.814301
331 234 49.105202
331 235 46.4828
331 236 46.766102
331 237 49.5443
331 238 49.615002
331 239 49.323002
331 240 48.509998
331 241 51.377201
331 242 49.911201
331 243 49.420799
331 244 48.478401
331 245 51.2616
331 246 49.6665
331 247 47.850101
331 248 49.890202
331 249 49.390598
331 250 48.535198
331 251 47.747898
331 252 47.581501
331 253 48.619499
331 254 47.109001
331 255 50.6465
331 256 48.600498
331 257 50.4305
331 258 50.649101
331 259 48.906502
331 260 49.959702
331 261 48.054901
331 262 51.530701
331 263 48.178799
331 264 47.778599
331 265 49.136398
331 266 49.7645
331 267 47.536301
331 268 48.0131
331 269 48.965
331 270 48.910599
331 271 50.785702
331 272 46.613998
331 273 49.329601
331 274 51.5494
331 275 48.298199
331 276 48.1675
331 277 46.817799
331 278 48.0271
331 279 49.481701
331 280 47.8745
331 281 48.800999
331 282 47.876701
331 283 49.986099
331 284 47.469501
331 285 48.195202
331 286 49.8241
331 287 51.297401
331 288 51.3246
331 289 47.244499
331 290 52.178799
331 291 49.23
331 292 52.185001
331 293 50.490101
331 294 50.583599
331 295 51.5135
331 296 50.561798
331 297 51.2131
331 298 48.4366
331 299 49.202801
331 300 50.6978
331 301 49.485802
331 302 48.193699
331 303 49.239101
331 304 56.486
331 305 48.0933
331 306 49.080799
331 307 50.532001
331 308 49.617001
331 309 48.6954
331 310 49.168098
331 311 51.055401
331 312 49.375
331 313 50.155102
331 314 50.009701
331 315 48.978802
331 316 53.710098
331 317 49.643799
331 318 51.191799
331 319 48.3927
331 320 49.886002
331 321 53.986099
331 322 49.299198
331 323 50.9021
331 324 48.0205
331 325 54.621601
331 326 52.688499
331 327 51.460602
331 328 51.66
331 329 49.314499
331 330 50.904202
331 331 50.319302
331 332 50.626499
331 333 51.369598
331 334 49.5742
331 335 51.269199
331 336 46.256401
331 337 37.701801
331 338 28.843399
331 339 20.316999
331 340 0
331 341 0
331 342 0
331 343 -3.52426
331 344 66.148697
331 345 0
331 346 0
331 347 15.893
331 348 0
331 349 0
331 350 0
331 351 0
331 352 0
331 353 0
331 354 0
331 355 0
331 356 0
331 357 0
331 358 0
331 359 0
331 360 0
331 361 0
331 362 0
331 363 0
331 364 0
331 365 0
331 366 0
331 367 24.1084
331 368 0
331 369 0
331 370 0
331 371 0
331 372 0
331 373 0
331 374 0
331 375 26.037701
331 376 0
331 377 33.027599
331 378 48.9986
331 379 0
331 380 0
331 381 0
331 382 0
331 383 0
331 384 0
331 385 0
331 386 0
331 387 0
331 388 0
331 389 0
331 390 0
331 391 0
331 392 0
331 393 0
331 394 0
331 395 0
331 396 0
331 397 0
331 398 0
331 399 0
331 400 0
331 401 0
331 402 0
331 403 0
331 404 0
331 405 0
331 406 0
331 407 0
331 408 0
331 409 0
331 410 0
331 411 0
331 412 0
331 413 0
331 414 0
331 415 0
331 416 0
331 417 0
331 418 0
331 419 0
331 420 0
331 421 0
331 422 0
331 423 0
331 424 0
331 425 0
331 426 0
331 427 0
331 428 0
331 429 0
331 430 0
331 431 0
331 432 0
331 433 0
331 434 0
331 435 0
331 436 0
331 437 0
331 438 0
331 439 0
331 440 0
331 441 23.774
331 442 0
331 443 0
331 444 0
331 445 0
331 446 0
331 447 59.609901
331 448 0
331 449 0
331 450 0
331 451 0
331 452 0
331 453 0
331 454 0
331 455 0
331 456 0
331 457 0
331 458 0
331 459 0
331 460 0
331 461 0
331 462 0
331 463 0
331 464 0
331 465 3.00387
331 466 0
331 467 0
331 468 0
331 469 0
331 470 0
331 471 0
331 472 0
331 473 0
331 474 0
331 475 0
331 476 0
331 477 0
331 478 0
331 479 0
331 480 0
331 481 0
331 482 0
331 483 0
331 484 0
331 485 0
331 486 0
331 487 0
331 488 0
331 489 0
331 490 0
331 491 0
331 492 0
331 493 0
331 494 0
331 495 0
331 496 32.361698
331 497 0
331 498 0
331 499 0
332 0 0
332 1 0
332 2 0
332 3 0
332 4 0
332 5 0
332 6 0
332 7 0
332 8 12.655
332 9 0
332 10 13.04
332 11 9.5848799
332 12 0
332 13 0
332 14 0
332 15 -0.181916
332 16 0
332 17 0
332 18 0
332 19 0
332 20 0
332 21 2.7915299
332 22 0
332 23 0
332 24 0
332 25 0
332 26 0
332 27 0
332 28 0
332 29 105.331
332 30 72.0783
332 31 55.125
332 32 47.828999
332 33 44.234798
332 34 43.577702
332 35 43.402901
332 36 43.657001
332 37 42.8853
332 38 43.914398
332 39 44.2047
332 40 43.294701
332 41 42.8978
332 42 44.440201
332 43 43.7747
332 44 43.5937
332 45 44.766399
332 46 45.311501
332 47 44.748501
332 48 44.899799
332 49 44.438599
332 50 43.098701
332 51 43.445599
332 52 43.8377
332 53 43.7537
332 54 44.4464
332 55 43.4049
332 56 45.167
332 57 44.906101
332 58 44.858002
332 59 47.518398
332 60 44.3009
332 61 46.3503
332 62 44.4095
332 63 43.615398
332 64 44.956402
332 65 44.0975
332 66 45.1437
332 67 43.9781
332 68 43.8671
332 69 44.562401
332 70 45.237999
332 71 43.493
332 72 43.876099
332 73 45.023998
332 74 44.882099
332 75 46.496498
332 76 44.402699
332 77 44.089802
332 78 45.012299
332 79 44.664501
332 80 45.944302
332 81 44.034401
332 82 44.5317
332 83 44.790199
332 84 43.741299
332 85 44.6063
332 86 45.308998
332 87 44.8251
332 88 44.261398
332 89 45.7328
332 90 44.912102
332 91 45.659
332 92 45.859001
332 93 44.361
332 94 45.4165
332 95 44.451099
332 96 44.977501
332 97 45.608501
332 98 44.807999
332 99 43.474998
332 100 46.4198
332 101 91.518799
332 102 70.874603
332 103 83.751198
332 104 92.913597
332 105 86.981796
332 106 77.890602
332 107 72.226501
332 108 102.938
332 109 68.286499
332 110 70.505501
332 111 64.675797
332 112 67.588097
332 113 65.531799
332 114 58.472
332 115 59.8046
332 116 57.6497
332 117 54.117298
332 118 54.672901
332 119 52.796398
332 120 54.7173
332 121 52.254101
332 122 50.719799
332 123 50.6852
332 124 52.492699
332 125 51.652401
332 126 51.284901
332 127 49.128899
332 128 50.7061
332 129 51.797501
332 130 50.6273
332 131 49.158901
332 132 46.681499
332 133 47.302898
332 134 46.9491
332 135 49.295399
332 136 46.677101
332 137 47.309299
332 138 46.764301
332 139 44.616798
332 140 48.229
332 141 47.256599
332 142 48.440701
332 143 45.793201
332 144 47.447201
332 145 47.590801
332 146 46.616501
332 147 47.846298
332 148 46.4305
332 149 46.284599
332 150 45.8638
332 151 44.8801
332 152 47.588501
332 153 46.889198
332 154 47.690601
332 155 45.8596
332 156 47.640301
332 157 48.649601
332 158 47.033298
332 159 48.444801
332 160 46.966801
332 161 47.681999
332 162 44.9678
332 163 46.939899
332 164 46.245201
332 165 46.986801
332 166 47.2229
332 167 47.999001
332 168 46.837399
332 169 47.426899
332 170 48.008499
332 171 47.151501
332 172 47.398899
332 173 48.070702
332 174 47.542198
332 175 48.480701
332 176 46.720798
332 177 46.6479
332 178 47.540798
332 179 48.3755
332 180 46.279598
332 181 47.218399
332 182 46.791401
332 183 47.082001
332 184 46.815102
332 185 46.028198
332 186 46.839401
332 187 48.2738
332 188 48.433399
332 189 46.696301
332 190 47.149899
332 191 47.931
332 192 47.0625
332 193 48.237
332 194 47.055901
332 195 47.896
332 196 48.3312
332 197 47.657398
332 198 47.165199
332 199 48.172298
332 200 47.992802
332 201 46.18
332 202 47.6726
332 203 48.5485
332 204 48.223999
332 205 48.1959
332 206 48.999802
332 207 49.2766
332 208 49.160198
332 209 49.0256
332 210 46.988701
332 211 48.684399
332 212 48.036701
332 213 49.030701
332 214 49.0709
332 215 47.695099
332 216 47.8671
332 217 47.2775
332 218 47.213001
332 219 48.856098
332 220 48.492599
332 221 49.2244
332 222 47.146099
332 223 48.260601
332 224 49.521099
332 225 49.7355
332 226 47.7267
332 227 48.630798
332 228 49.9814
332 229 48.544201
332 230 48.589901
332 231 45.974602
332 232 48.060902
332 233 47.194401
332 234 47.219299
332 235 46.965401
332 236 47.4874
332 237 50.0774
332 238 48.284901
332 239 49.6465
332 240 48.8465
332 241 49.273998
332 242 49.812901
332 243 47.961899
332 244 49.2658
332 245 48.265701
332 246 47.711399
332 247 47.379101
332 248 47.772701
332 249 48.389099
332 250 48.124199
332 251 48.145401
332 252 48.054401
332 253 48.634602
332 254 51.208302
332 255 47.659302
332 256 49.353199
332 257 46.8769
332 258 51.419201
332 259 49.4804
332 260 48.182598
332 261 50.2929
332 262 48.028198
332 263 50.955101
332 264 48.124401
332 265 48.182201
332 266 48.841099
332 267 47.996899
332 268 48.641602
332 269 49.594501
332 270 49.9729
332 271 48.187599
332 272 51.333099
332 273 48.8013
332 274 49.198601
332 275 54.814201
332 276 47.891998
332 277 47.944302
332 278 47.685398
332 279 50.928501
332 280 48.5252
332 281 49.080101
332 282 48.4986
332 283 48.169899
332 284 50.135799
332 285 48.023998
332 286 49.4506
332 287 51.6133
332 288 49.790699
332 289 50.375401
332 290 49.508598
332 291 52.122002
332 292 49.818001
332 293 49.428101
332 294 50.901901
332 295 49.997299
332 296 51.763699
332 297 51.8535
332 298 49.803398
332 299 49.401299
332 300 51.450802
332 301 49.139801
332 302 49.349602
332 303 50.667999
332 304 49.6689
332 305 50.9394
332 306 49.7309
332 307 50.228401
332 308 54.820499
332 309 50.241501
332 310 49.960701
332 311 49.959999
332 312 52.7976
332 313 50.625198
332 314 50.658199
332 315 49.352501
332 316 48.705399
332 317 50.1049
332 318 48.566898
332 319 50.083302
332 320 50.192699
332 321 51.599201
332 322 50.387001
332 323 49.652401
332 324 51.158401
332 325 51.426102
332 326 50.543701
332 327 50.208199
332 328 48.826599
332 329 50.4072
332 330 49.476299
332 331 49.344501
332 332 47.973801
332 333 51.2729
332 334 51.4286
332 335 48.702202
332 336 47.233101
332 337 36.238899
332 338 28.9723
332 339 17.2162
332 340 0
332 341 0
332 342 0
332 343 4.64745
332 344 0
332 345 0
332 346 13.985
332 347 0
332 348 0
332 349 0
332 350 0
332 351 0
332 352 0
332 353 0
332 354 0
332 355 0
332 356 0
332 357 0
332 358 0
332 359 0
332 360 17.7241
332 361 0
332 362 0
332 363 0
332 364 0
332 365 0
332 366 0
332 367 0
332 368 0
332 369 0
332 370 0
332 371 0
332 372 0
332 373 0
332 374 -3.5278499
332 375 0
332 376 0
332 377 0
332 378 44.486301
332 379 0
332 380 0
332 381 0
332 382 0
332 383 27.996
332 384 0
332 385 0
332 386 0
332 387 0
332 388 0
332 389 0
332 390 0
332 391 0
332 392 0
332 393 0
332 394 0
332 395 0
332 396 0
332 397 0
332 398 0
332 399 0
332 400 0
332 401 0
332 402 0
332 403 0
332 404 0
332 405 0
332 406 0
332 407 0
332 408 0
332 409 0
332 410 0
332 411 0
332 412 0
332 413 0
332 414 0
332 415 0
332 416 0
332 417 0
332 418 0
332 419 0
332 420 0
332 421 0
332 422 0
332 423 0
332 424 0
332 425 0
332 426 0
332 427 0
332 428 0
332 429 0
332 430 0
332 431 0
332 432 0
332 433 0
332 434 0
332 435 0
332 436 0
332 437 0
332 438 0
332 439 0
332 440 0
332 441 0
332 442 0
332 443 0
332 444 0
332 445 0
332 446 0
332 447 0
332 448 0
332 449 0
332 450 0
332 451 0
332 452 0
332 453 0
332 454 0
332 455 0
332 456 0
332 457 0
332 458 0
332 459 0
332 460 0
332 461 0
332 462 0
332 463 0
332 464 0
332 465 0
332 466 9.75385
332 467 0
332 468 0
332 469 0
332 470 0
332 471 0
332 472 0
332 473 0
332 474 0
332 475 0
332 476 0
332 477 0
332 478 0
332 479 0
332 480 0
332 481 0
332 482 0
332 483 0
332 484 41.836899
332 485 0
332 486 0
332 487 0
332 488 0
332 489 0
332 490 7.2205
332 491 0
332 492 0
332 493 0
332 494 0
332 495 0
332 496 0
332 497 0
332 498 0
332 499 0
333 0 0
333 1 0
333 2 0
333 3 0
333 4 0
333 5 0
333 6 0
333 7 0
333 8 0
333 9 13.4048
333 10 27.144699
333 11 22.8389
333 12 0
333 13 8.1925602
333 14 0
333 15 4.5525799
333 16 0
333 17 0
333 18 281.30301
333 19 0
333 20 0
333 21 0
333 22 0
333 23 10.7064
333 24 0
333 25 23.667801
333 26 0
333 27 10.4805
333 28 7.1143398
333 29 78.866402
333 30 73.6166
333 31 56.147301
333 32 48.229198
333 33 44.7873
333 34 42.9412
333 35 42.9156
333 36 43.967999
333 37 43.923401
333 38 42.271301
333 39 44.241402
333 40 43.2649
333 41 43.8088
333 42 44.437698
333 43 44.923901
333 44 44.7719
333 45 44.427601
333 46 45.9347
333 47 43.9552
333 48 44.512001
333 49 44.298
333 50 44.1689
333 51 42.818401
333 52 43.6581
333 53 44.199299
333 54 42.847401
333 55 43.995899
333 56 43.8134
333 57 44.558998
333 58 44.691502
333 59 44.441002
333 60 46.316002
333 61 44.734798
333 62 45.672001
333 63 44.562099
333 64 44.864101
333 65 44.962502
333 66 43.707298
333 67 43.5648
333 68 42.7817
333 69 44.645199
333 70 44.499401
333 71 44.9478
333 72 43.903301
333 73 45.0089
333 74 44.7813
333 75 44.532001
333 76 45.775002
333 77 44.534801
333 78 44.4646
333 79 45.211399
333 80 44.755402
333 81 44.502602
333 82 44.422401
333 83 44.840199
333 84 44.7425
333 85 45.523201
333 86 44.309101
333 87 44.0145
333 88 45.097698
333 89 44.546299
333 90 45.6222
333 91 44.182098
333 92 45.352699
333 93 44.863098
333 94 45.476799
333 95 45.482101
333 96 44.523602
333 97 45.101898
333 98 44.444302
333 99 44.839401
333 100 45.290401
333 101 44.8255
333 102 45.912701
333 103 46.2658
333 104 46.506401
333 105 45.981701
333 106 46.497398
333 107 46.750599
333 108 46.656799
333 109 48.070801
333 110 46.352901
333 111 46.7244
333 112 46.7981
333 113 46.8363
333 114 46.8367
333 115 47.065102
333 116 47.1521
333 117 45.322899
333 118 45.9496
333 119 44.776299
333 120 45.842602
333 121 45.1908
333 122 45.634399
333 123 47.416599
333 124 47.495399
333 125 48.126202
333 126 45.417599
333 127 46.839298
333 128 46.400101
333 129 46.4562
333 130 45.040401
333 131 47.014999
333 132 45.494801
333 133 45.111099
333 134 44.5359
333 135 44.8783
333 136 45.977001
333 137 47.836102
333 138 45.501999
333 139 46.184101
333 140 45.403301
333 141 46.300098
333 142 46.301201
333 143 46.422699
333 144 46.577801
333 145 46.067299
333 146 46.991199
333 147 46.0075
333 148 46.955799
333 149 46.068699
333 150 46.857899
333 151 46.722801
333 152 45.8353
333 153 46.2929
333 154 44.9352
333 155 46.830399
333 156 47.691101
333 157 47.133099
333 158 46.499401
333 159 47.158001
333 160 45.405998
333 161 48.246399
333 162 47.373901
333 163 45.971802
333 164 47.908298
333 165 45.542
333 166 47.710499
333 167 45.854301
333 168 47.2658
333 169 46.973701
333 170 46.8634
333 171 49.1287
333 172 48.0023
333 173 46.894299
333 174 47.492802
333 175 48.9716
333 176 47.160599
333 177 46.563801
333 178 48.072498
333 179 46.366798
333 180 47.704498
333 181 45.6437
333 182 45.8279
333 183 47.563999
333 184 45.771599
333 185 47.282001
333 186 46.042999
333 187 48.256302
333 188 45.935699
333 189 46.927101
333 190 46.586899
333 191 48.640999
333 192 48.02
333 193 46.6278
333 194 48.812199
333 195 46.773102
333 196 46.952
333 197 47.5854
333 198 47.268002
333 199 47.7854
333 200 45.540298
333 201 47.5131
333 202 46.5481
333 203 47.8526
333 204 47.588799
333 205 47.188599
333 206 47.0406
333 207 47.4109
333 208 52.498798
333 209 47.8666
333 210 48.276199
333 211 47.169399
333 212 47.6003
333 213 48.0854
333 214 47.383202
333 215 46.697399
333 216 47.266998
333 217 48.007702
333 218 47.664001
333 219 46.475399
333 220 49.6404
333 221 46.795101
333 222 50.536598
333 223 48.115398
333 224 48.539501
333 225 50.025902
333 226 46.9147
333 227 49.326801
333 228 46.495499
333 229 48.904701
333 230 47.383598
333 231 46.721699
333 232 47.061901
333 233 47.5783
333 234 47.134499
333 235 47.885101
333 236 49.6987
333 237 49.612202
333 238 49.2178
333 239 48.047699
333 240 46.8773
333 241 51.401402
333 242 46.7957
333 243 49.003101
333 244 47.490501
333 245 49.649101
333 246 49.093899
333 247 47.500301
333 248 47.899101
333 249 47.153599
333 250 48.7822
333 251 46.854301
333 252 49.283401
333 253 49.202
333 254 47.8246
333 255 49.613899
333 256 47.6745
333 257 53.5112
333 258 49.806499
333 259 48.8041
333 260 47.632801
333 261 48.0844
333 262 49.3228
333 263 47.3671
333 264 48.7952
333 265 48.896999
333 266 49.360699
333 267 47.720001
333 268 48.814098
333 269 49.928101
333 270 46.687901
333 271 53.748501
333 272 47.301102
333 273 49.457401
333 274 50.902599
333 275 51.082199
333 276 50.481701
333 277 46.416599
333 278 49.111099
333 279 48.4589
333 280 48.3167
333 281 49.437302
333 282 48.170101
333 283 50.221001
333 284 48.298
333 285 47.9813
333 286 49.914001
333 287 49.609798
333 288 52.697899
333 289 48.016499
333 290 50.7812
333 291 48.239498
333 292 49.202999
333 293 49.757301
333 294 48.849602
333 295 50.053398
333 296 49.523102
333 297 50.923199
333 298 48.2994
333 299 48.552502
333 300 49.728901
333 301 49.544701
333 302 50.062401
333 303 48.822201
333 304 53.9021
333 305 51.8134
333 306 48.544102
333 307 51.440701
333 308 50.228401
333 309 51.052601
333 310 48.106098
333 311 50.2649
333 312 50.549198
333 313 49.1562
333 314 48.398701
333 315 49.951
333 316 54.014599
333 317 50.9655
333 318 50.926201
333 319 50.607601
333 320 49.566601
333 321 50.6973
333 322 49.464199
333 323 49.9916
333 324 50.2202
333 325 53.588001
333 326 50.2206
333 327 49.841099
333 328 50.794498
333 329 49.5373
333 330 50.793999
333 331 48.523701
333 332 50.389702
333 333 51.7113
333 334 48.2812
333 335 48.434399
333 336 46.404999
333 337 37.720699
333 338 26.045401
333 339 17.618999
333 340 -0.75019997
333 341 0.89172298
333 342 -1.51315
333 343 9.58883
333 344 0
333 345 29.2631
333 346 0
333 347 0
333 348 0
333 349 0
333 350 0
333 351 0
333 352 0
333 353 0
333 354 0
333 355 0
333 356 0
333 357 0
333 358 0
333 359 0
333 360 0
333 361 0
333 362 0
333 363 0
333 364 0
333 365 0
333 366 0
333 367 0
333 368 0
333 369 0
333 370 0
333 371 0
333 372 0
333 373 0
333 374 0
333 375 0
333 376 0
333 377 0
333 378 64.227501
333 379 0
333 380 0
333 381 0
333 382 0
333 383 0
333 384 0
333 385 0
333 386 0
333 387 0
333 388 0
333 389 0
333 390 0
333 391 0
333 392 0
333 393 0
333 394 0
333 395 0
333 396 0
333 397 0
333 398 0
333 399 0
333 400 0
333 401 0
333 402 0
333 403 0
333 404 0
333 405 0
333 406 0
333 407 0
333 408 0
333 409 0
333 410 0
333 411 0
333 412 0
333 413 0
333 414 0
333 415 0
333 416 0
333 417 0
333 418 0
333 419 0
333 420 0
333 421 0
333 422 0
333 423 0
333 424 0
333 425 0
333 426 0
333 427 0
333 428 0
333 429 0
333 430 0
333 431 0
333 432 0
333 433 0
333 434 0
333 435 0
333 436 0
333 437 0
333 438 0
333 439 0
333 440 0
333 441 0
333 442 0
333 443 0
333 444 0
333 445 0
333 446 0
333 447 0
333 448 0
333 449 0
333 450 0
333 451 0
333 452 0
333 453 0
333 454 0
333 455 0
333 456 0
333 457 0
333 458 0
333 459 0
333 460 0
333 461 0
333 462 0
333 463 0
333 464 0
333 465 47.752399
333 466 0
333 467 42.150299
333 468 0
333 469 0
333 470 0
333 471 0
333 472 0
333 473 0
333 474 0
333 475 0
333 476 0
333 477 0
333 478 0
333 479 0
333 480 0
333 481 0
333 482 0
333 483 0
333 484 0
333 485 0
333 486 21.507401
333 487 0
333 488 0
333 489 0
333 490 0
333 491 0
333 492 0
333 493 0
333 494 0
333 495 0
333 496 0
333 497 0
333 498 0
333 499 0
334 0 0
334 1 20.2663
334 2 0
334 3 16.027599
334 4 0
334 5 0
334 6 0
334 7 0
334 8 12.7556
334 9 0
334 10 0
334 11 0
334 12 0
334 13 0
334 14 0
334 15 0
334 16 0
334 17 0
334 18 0
334 19 0
334 20 0
334 21 24.2082
334 22 18.5203
334 23 0
334 24 0
334 25 0
334 26 9.12819
334 27 12.2977
334 28 12.1715
334 29 6.45017
334 30 73.093102
334 31 56.117298
334 32 47.686298
334 33 44.733398
334 34 44.280499
334 35 43.645599
334 36 44.411999
334 37 43.241901
334 38 44.4175
334 39 42.638599
334 40 44.142899
334 41 43.579102
334 42 43.663898
334 43 44.849701
334 44 43.588001
334 45 44.887901
334 46 44.3242
334 47 45.1507
334 48 44.506001
334 49 44.4291
334 50 44.288101
334 51 43.865101
334 52 43.9049
334 53 43.6134
334 54 44.848499
334 55 43.4604
334 56 44.924301
334 57 44.907299
334 58 44.107101
334 59 44.974201
334 60 45.3078
334 61 45.776001
334 62 45.166599
334 63 43.9165
334 64 44.1805
334 65 43.810699
334 66 44.9021
334 67 43.7034
334 68 43.749298
334 69 42.7407
334 70 44.982201
334 71 43.776501
334 72 44.320499
334 73 44.693501
334 74 44.373402
334 75 45.3988
334 76 44.861698
334 77 44.509602
334 78 44.694199
334 79 45.588402
334 80 45.575001
334 81 44.411701
334 82 45.049702
334 83 44.3018
334 84 43.4804
334 85 44.395699
334 86 43.878601
334 87 44.615898
334 88 44.796299
334 89 45.258801
334 90 44.951599
334 91 46.169998
334 92 45.1273
334 93 44.881699
334 94 45.3508
334 95 45.118401
334 96 45.495098
334 97 45.528599
334 98 45.461201
334 99 45.025299
334 100 44.987499
334 101 44.2327
334 102 44.859299
334 103 46.284698
334 104 44.1567
334 105 46.932201
334 106 44.990501
334 107 47.0159
334 108 46.2962
334 109 45.590099
334 110 45.801201
334 111 46.6628
334 112 46.249199
334 113 44.993
334 114 45.972401
334 115 45.949699
334 116 45.101501
334 117 46.559101
334 118 45.335999
334 119 46.452099
334 120 45.649799
334 121 46.0653
334 122 46.238499
334 123 47.197399
334 124 46.326801
334 125 46.103001
334 126 46.844398
334 127 47.279701
334 128 46.2304
334 129 44.8074
334 130 45.5807
334 131 46.482498
334 132 45.771
334 133 45.154202
334 134 46.712898
334 135 45.396198
334 136 46.368999
334 137 46.337002
334 138 44.292198
334 139 46.723801
334 140 49.112099
334 141 46.9902
334 142 46.685001
334 143 46.152699
334 144 46.965401
334 145 47.931999
334 146 48.879799
334 147 45.9753
334 148 46.930599
334 149 44.937
334 150 44.890999
334 151 47.128899
334 152 47.200802
334 153 46.9678
334 154 46.756699
334 155 48.094398
334 156 46.581001
334 157 46.536598
334 158 46.8606
334 159 47.659599
334 160 47.443802
334 161 45.7943
334 162 47.004101
334 163 46.777802
334 164 45.099201
334 165 46.611698
334 166 45.9561
334 167 46.909302
334 168 45.318501
334 169 46.802799
334 170 46.873798
334 171 45.195202
334 172 48.3666
334 173 46.5275
334 174 50.180099
334 175 46.5718
334 176 46.912498
334 177 46.632801
334 178 47.587101
334 179 47.9156
334 180 46.806999
334 181 47.624298
334 182 45.805302
334 183 46.483002
334 184 46.5681
334 185 45.598499
334 186 45.950199
334 187 47.2201
334 188 48.612598
334 189 47.195999
334 190 47.696701
334 191 50.546799
334 192 47.063599
334 193 46.547199
334 194 46.106701
334 195 49.555599
334 196 46.031101
334 197 47.166199
334 198 47.4571
334 199 46.715099
334 200 48.883499
334 201 45.2024
334 202 47.723202
334 203 46.9161
334 204 48.049301
334 205 47.326199
334 206 47.097301
334 207 50.377499
334 208 47.377701
334 209 48.0868
334 210 47.835999
334 211 48.629902
334 212 47.8801
334 213 47.931999
334 214 48.396
334 215 46.449799
334 216 46.835602
334 217 46.8969
334 218 47.718899
334 219 46.419899
334 220 48.7561
334 221 49.107899
334 222 47.890301
334 223 49.700699
334 224 47.404301
334 225 50.742199
334 226 49.375
334 227 48.2173
334 228 50.111301
334 229 47.921299
334 230 48.1814
334 231 45.395
334 232 47.3451
334 233 47.502201
334 234 45.669601
334 235 48.247002
334 236 47.5825
334 237 49.482899
334 238 49.065899
334 239 50.201599
334 240 50.979301
334 241 48.493401
334 242 51.308102
334 243 47.6595
334 244 48.787201
334 245 51.469002
334 246 48.959499
334 247 48.121201
334 248 46.626999
334 249 51.311001
334 250 47.422501
334 251 49.148399
334 252 48.327202
334 253 50.7215
334 254 50.618401
334 255 48.017899
334 256 48.861698
334 257 48.630001
334 258 52.856602
334 259 48.3634
334 260 49.533001
334 261 50.052101
334 262 48.812901
334 263 47.954899
334 264 48.498199
334 265 48.6469
334 266 47.961601
334 267 47.739101
334 268 49.518101
334 269 47.006302
334 270 48.442902
334 271 47.050201
334 272 47.766899
334 273 50.5592
334 274 50.616699
334 275 53.948898
334 276 47.803101
334 277 48.0196
334 278 48.4884
334 279 48.917
334 280 49.0359
334 281 48.470299
334 282 49.387199
334 283 47.0536
334 284 48.886299
334 285 47.742802
334 286 48.408699
334 287 51.8186
334 288 49.254902
334 289 51.487999
334 290 49.368801
334 291 51.559898
334 292 50.148399
334 293 48.554401
334 294 50.258598
334 295 50.611401
334 296 51.1147
334 297 48.305599
334 298 48.520901
334 299 48.884201
334 300 49.1385
334 301 50.0285
334 302 49.277802
334 303 48.814999
334 304 49.932701
334 305 50.2341
334 306 49.865898
334 307 47.973099
334 308 50.2565
334 309 48.8083
334 310 48.900002
334 311 50.728802
334 312 53.575401
334 313 48.651402
334 314 49.540199
334 315 48.5312
334 316 51.887798
334 317 51.8531
334 318 49.4286
334 319 48.318802
334 320 48.7285
334 321 51.115898
334 322 50.696301
334 323 50.166901
334 324 53.027
334 325 51.520599
334 326 51.2873
334 327 51.003502
334 328 52.082199
334 329 50.021301
334 330 49.593899
334 331 49.8083
334 332 48.5616
334 333 50.5023
334 334 49.493301
334 335 50.8368
334 336 46.603199
334 337 36.9991
334 338 31.908199
334 339 28.231701
334 340 0
334 341 0
334 342 22.4499
334 343 0
334 344 0
334 345 0
334 346 0
334 347 0
334 348 0
334 349 0
334 350 0
334 351 0
334 352 0
334 353 0
334 354 0
334 355 0
334 356 0
334 357 0
334 358 0
334 359 0
334 360 0
334 361 0
334 362 0
334 363 0
334 364 0
334 365 0
334 366 0
334 367 0
334 368 0
334 369 0
334 370 0
334 371 0
334 372 0
334 373 0
334 374 0
334 375 63.2295
334 376 0
334 377 0
334 378 0
334 379 0
334 380 0
334 381 0
334 382 0
334 383 0
334 384 0
334 385 0
334 386 0
334 387 0
334 388 0
334 389 0
334 390 0
334 391 0
334 392 0
334 393 0
334 394 0
334 395 0
334 396 0
334 397 0
334 398 0
334 399 0
334 400 0
334 401 0
334 402 0
334 403 0
334 404 0
334 405 0
334 406 0
334 407 0
334 408 0
334 409 0
334 410 0
334 411 0
334 412 0
334 413 0
334 414 0
334 415 0
334 416 0
334 417 0
334 418 0
334 419 0
334 420 0
334 421 0
334 422 0
334 423 0
334 424 0
334 425 0
334 426 0
334 427 0
334 428 0
334 429 0
334 430 0
334 431 0
334 432 0
334 433 0
334 434 0
334 435 0
334 436 0
334 437 0
334 438 0
334 439 0
334 440 0
334 441 0
334 442 0
334 443 0
334 444 0
334 445 0
334 446 0
334 447 37.190399
334 448 0
334 449 0
334 450 34.142101
334 451 0
334 452 0
334 453 0
334 454 0
334 455 0
334 456 0
334 457 0
334 458 0
334 459 0
334 460 31.987101
334 461 0
334 462 37.912899
334 463 0
334 464 0
334 465 0
334 466 0
334 467 42.584702
334 468 0
334 469 0
334 470 0
334 471 0
334 472 0
334 473 6.7504601
334 474 0
334 475 0
334 476 0
334 477 0
334 478 0
334 479 0
334 480 0
334 481 0
334 482 0
334 483 40.290199
334 484 34.4231
334 485 0
334 486 33.2047
334 487 0
334 488 0
334 489 0
334 490 0
334 491 0
334 492 17.0289
334 493 0
334 494 0
334 495 0
334 496 0
334 497 0
334 498 0
334 499 0
335 0 0
335 1 0
335 2 0
335 3 0
335 4 0
335 5 0
335 6 0
335 7 0
335 8 17.992001
335 9 0
335 10 0
335 11 36.862701
335 12 0
335 13 0
335 14 6.98702
335 15 0
335 16 0
335 17 0
335 18 0
335 19 0
335 20 0
335 21 21.2971
335 22 0
335 23 0
335 24 107.243
335 25 -2.4972301
335 26 78.516098
335 27 10.7925
335 28 7.2335401
335 29 91.218201
335 30 80.138
335 31 54.587299
335 32 47.115799
335 33 45.284801
335 34 43.071701
335 35 43.325001
335 36 42.778301
335 37 44.193802
335 38 42.6703
335 39 44.0439
335 40 43.5476
335 41 44.113201
335 42 44.083
335 43 43.604301
335 44 44.371799
335 45 44.499001
335 46 44.990101
335 47 43.5116
335 48 45.004501
335 49 43.777802
335 50 42.9011
335 51 43.0252
335 52 44.633598
335 53 43.444401
335 54 43.423599
335 55 44.775002
335 56 44.564301
335 57 45.121799
335 58 45.968498
335 59 43.976299
335 60 45.672798
335 61 44.351299
335 62 45.1777
335 63 45.156799
335 64 44.989101
335 65 44.3568
335 66 44.655701
335 67 44.161301
335 68 43.587399
335 69 44.300499
335 70 44.0271
335 71 44.379398
335 72 44.005901
335 73 46.035301
335 74 45.238499
335 75 44.5005
335 76 44.703899
335 77 44.804001
335 78 45.9576
335 79 45.110001
335 80 44.642899
335 81 44.2761
335 82 45.2145
335 83 43.942299
335 84 43.5923
335 85 45.118099
335 86 43.644299
335 87 44.633301
335 88 44.713402
335 89 44.922901
335 90 45.064999
335 91 45.9561
335 92 45.457199
335 93 44.801899
335 94 45.162102
335 95 45.652599
335 96 46.076199
335 97 44.712002
335 98 44.488899
335 99 44.885799
335 100 45.460499
335 101 44.681301
335 102 44.9132
335 103 44.800598
335 104 46.155102
335 105 44.644699
335 106 45.351398
335 107 45.389099
335 108 48.451801
335 109 46.272099
335 110 45.046799
335 111 46.466301
335 112 45.995499
335 113 45.8008
335 114 44.980999
335 115 44.698299
335 116 44.8041
335 117 45.0144
335 118 45.6339
335 119 45.049
335 120 45.341301
335 121 45.413898
335 122 46.810699
335 123 45.742199
335 124 47.435299
335 125 46.125702
335 126 45.8755
335 127 46.633999
335 128 45.163799
335 129 44.816898
335 130 45.7397
335 131 47.0998
335 132 44.837299
335 133 46.724701
335 134 45.164001
335 135 44.829601
335 136 46.431599
335 137 45.621399
335 138 45.860802
335 139 46.202
335 140 46.6035
335 141 47.251301
335 142 46.4678
335 143 46.0886
335 144 45.580601
335 145 46.622501
335 146 45.738899
335 147 47.588799
335 148 45.489601
335 149 46.887299
335 150 46.647202
335 151 44.200699
335 152 46.730999
335 153 44.6306
335 154 45.833599
335 155 45.591301
335 156 46.704201
335 157 46.784199
335 158 48.6959
335 159 46.556198
335 160 47.550098
335 161 46.498001
335 162 46.3036
335 163 47.1017
335 164 45.7719
335 165 45.353298
335 166 47.456501
335 167 45.993599
335 168 45.6049
335 169 45.095001
335 170 46.4603
335 171 46.861
335 172 46.081001
335 173 47.3559
335 174 47.1805
335 175 48.428799
335 176 46.420502
335 177 46.9762
335 178 47.661301
335 179 47.442902
335 180 48.729599
335 181 46.182999
335 182 46.8461
335 183 46.568501
335 184 46.193901
335 185 44.5023
335 186 47.0261
335 187 47.996101
335 188 46.222599
335 189 47.6852
335 190 45.868301
335 191 48.356899
335 192 48.915199
335 193 45.7015
335 194 48.245201
335 195 48.0116
335 196 47.793301
335 197 47.430302
335 198 47.099499
335 199 46.570301
335 200 45.790798
335 201 45.5924
335 202 46.228401
335 203 46.321201
335 204 46.022301
335 205 46.4035
335 206 45.9939
335 207 48.011501
335 208 49.391998
335 209 47.633598
335 210 48.052299
335 211 47.2239
335 212 47.8111
335 213 47.8974
335 214 45.982101
335 215 48.314602
