ply
format ascii 1.0
element vertex 1586
property float x
property float y
property float z
end_header
91.250000 49.750000 -11.863529
91.500000 49.750000 -12.051446
91.750000 49.750000 -11.991292
92.000000 49.750000 -11.854288
92.250000 49.750000 -11.269362
92.500000 49.750000 -11.177149
92.750000 49.750000 -11.276213
93.000000 49.750000 -11.398684
93.250000 49.750000 -12.121588
93.500000 49.750000 -11.068748
93.750000 49.750000 -11.895833
94.000000 49.750000 -10.656180
94.250000 49.750000 -7.080087
94.500000 49.750000 -3.528109
15.500000 50.000000 -1.564977
15.750000 50.000000 -3.134791
16.000000 50.000000 -4.709465
16.250000 50.000000 -5.156704
16.500000 50.000000 -5.178672
16.750000 50.000000 -5.906541
17.000000 50.000000 -5.069074
17.250000 50.000000 -5.981119
17.500000 50.000000 -5.092483
17.750000 50.000000 -5.402853
18.000000 50.000000 -5.087574
18.250000 50.000000 -4.922545
18.500000 50.000000 -6.179202
18.750000 50.000000 -4.969159
19.000000 50.000000 -6.315525
19.250000 50.000000 -5.037780
19.500000 50.000000 -5.939543
19.750000 50.000000 -5.306663
20.000000 50.000000 -5.404668
20.250000 50.000000 -5.935886
20.500000 50.000000 -5.170021
20.750000 50.000000 -6.392078
21.000000 50.000000 -5.166409
21.250000 50.000000 -5.989665
21.500000 50.000000 -5.894135
21.750000 50.000000 -5.619236
22.000000 50.000000 -6.411779
22.250000 50.000000 -4.927309
22.500000 50.000000 -6.479259
22.750000 50.000000 -5.103703
23.000000 50.000000 -6.180362
23.250000 50.000000 -5.878471
23.500000 50.000000 -5.724460
23.750000 50.000000 -6.434591
24.000000 50.000000 -5.430768
24.250000 50.000000 -6.616645
24.500000 50.000000 -5.087794
24.750000 50.000000 -6.234586
25.000000 50.000000 -5.774178
25.250000 50.000000 -5.649180
25.500000 50.000000 -6.279624
25.750000 50.000000 -5.603762
26.000000 50.000000 -6.317039
26.250000 50.000000 -4.913171
26.500000 50.000000 -6.765970
26.750000 50.000000 -5.607164
27.000000 50.000000 -5.346498
27.250000 50.000000 -6.959715
27.500000 50.000000 -5.747247
27.750000 50.000000 -7.022883
28.000000 50.000000 -5.539867
28.250000 50.000000 -6.530834
28.500000 50.000000 -5.722385
28.750000 50.000000 -6.257317
29.000000 50.000000 -6.669601
29.250000 50.000000 -5.531229
29.500000 50.000000 -7.271968
29.750000 50.000000 -5.913932
30.000000 50.000000 -7.281399
30.250000 50.000000 -6.399183
30.500000 50.000000 -6.726385
30.750000 50.000000 -6.955705
31.000000 50.000000 -5.730239
31.250000 50.000000 -7.318193
31.500000 50.000000 -5.533295
31.750000 50.000000 -7.312804
32.000000 50.000000 -6.772493
32.250000 50.000000 -6.890703
32.500000 50.000000 -7.243825
32.750000 50.000000 -5.922349
33.000000 50.000000 -7.480052
33.250000 50.000000 -5.742145
33.500000 50.000000 -7.377002
33.750000 50.000000 -7.781973
34.000000 50.000000 -4.847219
34.250000 50.000000 -1.336247
34.500000 50.000000 2.150921
34.750000 50.000000 6.041687
35.000000 50.000000 10.326612
35.250000 50.000000 14.575739
35.500000 50.000000 15.658878
35.750000 50.000000 15.480660
36.000000 50.000000 14.474629
36.250000 50.000000 15.618784
36.500000 50.000000 13.535387
36.750000 50.000000 14.477472
37.000000 50.000000 14.082050
37.250000 50.000000 14.288794
37.500000 50.000000 14.623240
37.750000 50.000000 15.360774
38.000000 50.000000 15.241525
38.250000 50.000000 14.633107
38.500000 50.000000 14.419798
38.750000 50.000000 14.054380
39.000000 50.000000 14.763556
39.250000 50.000000 14.871622
39.500000 50.000000 14.699835
39.750000 50.000000 15.361341
40.000000 50.000000 13.919095
40.250000 50.000000 15.110957
40.500000 50.000000 14.248504
40.750000 50.000000 14.790026
41.000000 50.000000 14.922773
41.250000 50.000000 13.751250
41.500000 50.000000 14.527662
41.750000 50.000000 13.099627
42.000000 50.000000 14.720958
42.250000 50.000000 13.696203
42.500000 50.000000 14.124689
42.750000 50.000000 14.774437
43.000000 50.000000 15.145858
43.250000 50.000000 16.370037
43.500000 50.000000 13.981963
43.750000 50.000000 16.761860
44.000000 50.000000 13.784194
44.250000 50.000000 15.217530
44.500000 50.000000 14.833712
44.750000 50.000000 14.949143
45.000000 50.000000 16.492439
45.250000 50.000000 12.932971
45.500000 50.000000 14.743059
45.750000 50.000000 13.243683
46.000000 50.000000 14.576494
46.250000 50.000000 13.471816
46.500000 50.000000 14.135244
46.750000 50.000000 15.018041
47.000000 50.000000 14.140574
47.250000 50.000000 14.998494
47.500000 50.000000 12.979031
47.750000 50.000000 13.876809
48.000000 50.000000 13.616467
48.250000 50.000000 13.903272
48.500000 50.000000 14.089538
48.750000 50.000000 12.268943
49.000000 50.000000 14.218108
49.250000 50.000000 13.703254
49.500000 50.000000 13.920950
49.750000 50.000000 13.594496
50.000000 50.000000 14.365976
50.250000 50.000000 15.273935
50.500000 50.000000 13.805648
50.750000 50.000000 13.964746
51.000000 50.000000 12.119164
51.250000 50.000000 13.857126
51.500000 50.000000 13.048526
51.750000 50.000000 13.196743
52.000000 50.000000 14.862638
52.250000 50.000000 13.583386
52.500000 50.000000 14.619871
52.750000 50.000000 12.234790
53.000000 50.000000 13.850012
53.250000 50.000000 12.125149
53.500000 50.000000 12.317861
53.750000 50.000000 12.791590
54.000000 50.000000 13.287164
54.250000 50.000000 15.313600
54.500000 50.000000 13.178649
54.750000 50.000000 14.107904
55.000000 50.000000 13.371463
55.250000 50.000000 13.215399
55.500000 50.000000 12.779702
55.750000 50.000000 12.125349
56.000000 50.000000 13.873506
56.250000 50.000000 12.411777
56.500000 50.000000 14.118406
56.750000 50.000000 13.777856
57.000000 50.000000 13.623963
57.250000 50.000000 14.789361
57.500000 50.000000 13.319530
57.750000 50.000000 14.132073
58.000000 50.000000 12.172251
58.250000 50.000000 15.185824
58.500000 50.000000 13.104713
58.750000 50.000000 13.587623
59.000000 50.000000 13.215915
59.250000 50.000000 11.369080
59.500000 50.000000 14.220036
59.750000 50.000000 11.822866
60.000000 50.000000 12.915462
60.250000 50.000000 10.944023
60.500000 50.000000 13.640066
60.750000 50.000000 13.396999
61.000000 50.000000 12.430327
61.250000 50.000000 14.151875
61.500000 50.000000 12.539051
61.750000 50.000000 13.844129
62.000000 50.000000 12.273243
62.250000 50.000000 13.069947
62.500000 50.000000 12.825385
62.750000 50.000000 11.053738
63.000000 50.000000 14.109136
63.250000 50.000000 11.975595
63.500000 50.000000 13.886328
63.750000 50.000000 12.274472
64.000000 50.000000 12.562898
64.250000 50.000000 12.720288
64.500000 50.000000 12.621982
64.750000 50.000000 13.232958
65.000000 50.000000 10.744804
65.250000 50.000000 13.964622
65.500000 50.000000 13.403933
65.750000 50.000000 13.363982
66.000000 50.000000 13.444055
66.250000 50.000000 11.590640
66.500000 50.000000 13.579638
66.750000 50.000000 12.635817
67.000000 50.000000 13.542418
67.250000 50.000000 12.062255
67.500000 50.000000 11.946706
67.750000 50.000000 12.396732
68.000000 50.000000 11.553073
68.250000 50.000000 13.260093
68.500000 50.000000 11.045091
68.750000 50.000000 13.396246
69.000000 50.000000 12.386793
69.250000 50.000000 12.210005
69.500000 50.000000 11.872571
69.750000 50.000000 10.474874
70.000000 50.000000 12.365279
70.250000 50.000000 10.446568
70.500000 50.000000 13.280479
70.750000 50.000000 12.176657
71.000000 50.000000 12.796828
71.250000 50.000000 13.840345
71.500000 50.000000 10.452813
71.750000 50.000000 14.162760
72.000000 50.000000 10.840579
72.250000 50.000000 12.614649
72.500000 50.000000 11.905172
72.750000 50.000000 12.243739
73.000000 50.000000 12.879337
73.250000 50.000000 10.556025
73.500000 50.000000 13.135141
73.750000 50.000000 10.904210
74.000000 50.000000 12.305657
74.250000 50.000000 11.876371
74.500000 50.000000 7.468115
74.750000 50.000000 3.021720
75.000000 50.000000 -1.463304
75.250000 50.000000 -5.987452
75.500000 50.000000 -10.551229
75.750000 50.000000 -8.691948
76.000000 50.000000 -10.093109
76.250000 50.000000 -9.503666
76.500000 50.000000 -9.589851
76.750000 50.000000 -10.432869
77.000000 50.000000 -9.462893
77.250000 50.000000 -9.991284
77.500000 50.000000 -9.259051
77.750000 50.000000 -9.867826
78.000000 50.000000 -10.159821
78.250000 50.000000 -10.052861
78.500000 50.000000 -10.430169
78.750000 50.000000 -9.531739
79.000000 50.000000 -10.366420
79.250000 50.000000 -9.149635
79.500000 50.000000 -10.160293
79.750000 50.000000 -10.563639
80.000000 50.000000 -9.602697
80.250000 50.000000 -10.436711
80.500000 50.000000 -9.115324
80.750000 50.000000 -10.404760
81.000000 50.000000 -10.340735
81.250000 50.000000 -10.277473
81.500000 50.000000 -10.460916
81.750000 50.000000 -10.149678
82.000000 50.000000 -10.764251
82.250000 50.000000 -10.271831
82.500000 50.000000 -10.406479
82.750000 50.000000 -10.339193
83.000000 50.000000 -9.870000
83.250000 50.000000 -10.491780
83.500000 50.000000 -10.429257
83.750000 50.000000 -11.002687
84.000000 50.000000 -10.173594
84.250000 50.000000 -10.544456
84.500000 50.000000 -10.305511
84.750000 50.000000 -10.893879
85.000000 50.000000 -11.057556
85.250000 50.000000 -10.354288
85.500000 50.000000 -10.442460
85.750000 50.000000 -9.756460
86.000000 50.000000 -10.798193
86.250000 50.000000 -10.295247
86.500000 50.000000 -10.422620
86.750000 50.000000 -10.705976
87.000000 50.000000 -10.843076
87.250000 50.000000 -10.750829
87.500000 50.000000 -10.457819
87.750000 50.000000 -10.778496
88.000000 50.000000 -10.556743
88.250000 50.000000 -10.385949
88.500000 50.000000 -10.503852
88.750000 50.000000 -10.133435
89.000000 50.000000 -10.788632
89.250000 50.000000 -10.976754
89.500000 50.000000 -10.960914
89.750000 50.000000 -10.803953
90.000000 50.000000 -11.055537
90.250000 50.000000 -10.955564
90.500000 50.000000 -11.016927
90.750000 50.000000 -10.744747
91.000000 50.000000 -10.843610
91.250000 50.000000 -11.337873
91.500000 50.000000 -10.826158
91.750000 50.000000 -11.509592
92.000000 50.000000 -10.901602
92.250000 50.000000 -11.040023
92.500000 50.000000 -10.824197
92.750000 50.000000 -10.967854
93.000000 50.000000 -11.472838
93.250000 50.000000 -11.021973
93.500000 50.000000 -10.965098
93.750000 50.000000 -11.111635
94.000000 50.000000 -11.286328
94.250000 50.000000 -7.497249
94.500000 50.000000 -3.735238
15.500000 50.250000 -1.706439
15.750000 50.250000 -3.418631
16.000000 50.250000 -5.136605
16.250000 50.250000 -4.006518
16.500000 50.250000 -4.795614
16.750000 50.250000 -5.964063
17.000000 50.250000 -4.010334
17.250000 50.250000 -6.085369
17.500000 50.250000 -4.101633
17.750000 50.250000 -4.953515
18.000000 50.250000 -3.369875
18.250000 50.250000 -3.895111
18.500000 50.250000 -5.974874
18.750000 50.250000 -4.145356
19.000000 50.250000 -6.119919
19.250000 50.250000 -4.016048
19.500000 50.250000 -5.890348
19.750000 50.250000 -4.610010
20.000000 50.250000 -5.124381
20.250000 50.250000 -5.931558
20.500000 50.250000 -4.656363
20.750000 50.250000 -6.557164
21.000000 50.250000 -5.047650
21.250000 50.250000 -6.424145
21.500000 50.250000 -5.125747
21.750000 50.250000 -5.161014
22.000000 50.250000 -5.465428
22.250000 50.250000 -4.068083
22.500000 50.250000 -6.126961
22.750000 50.250000 -4.510750
23.000000 50.250000 -6.341090
23.250000 50.250000 -4.717215
23.500000 50.250000 -5.362705
23.750000 50.250000 -5.454414
24.000000 50.250000 -4.784033
24.250000 50.250000 -6.387904
24.500000 50.250000 -3.976978
24.750000 50.250000 -6.051722
25.000000 50.250000 -4.761665
25.250000 50.250000 -5.560186
25.500000 50.250000 -6.458009
25.750000 50.250000 -5.372097
26.000000 50.250000 -6.339723
26.250000 50.250000 -5.179506
26.500000 50.250000 -6.658289
26.750000 50.250000 -4.316126
27.000000 50.250000 -4.724344
27.250000 50.250000 -5.830791
27.500000 50.250000 -5.582355
27.750000 50.250000 -6.549102
28.000000 50.250000 -5.003411
28.250000 50.250000 -6.330660
28.500000 50.250000 -5.851962
28.750000 50.250000 -5.621421
29.000000 50.250000 -6.221344
29.250000 50.250000 -5.654373
29.500000 50.250000 -6.535692
29.750000 50.250000 -5.742242
30.000000 50.250000 -7.569738
30.250000 50.250000 -6.226944
30.500000 50.250000 -6.104413
30.750000 50.250000 -6.609052
31.000000 50.250000 -6.000409
31.250000 50.250000 -6.575784
31.500000 50.250000 -5.275233
31.750000 50.250000 -7.231432
32.000000 50.250000 -6.004377
32.250000 50.250000 -6.514959
32.500000 50.250000 -6.704276
32.750000 50.250000 -5.545027
33.000000 50.250000 -5.718394
33.250000 50.250000 -5.660015
33.500000 50.250000 -6.633587
33.750000 50.250000 -5.285368
34.000000 50.250000 -1.770241
34.250000 50.250000 1.721021
34.500000 50.250000 5.188666
34.750000 50.250000 8.632938
35.000000 50.250000 12.054077
35.250000 50.250000 15.452322
35.500000 50.250000 15.836774
35.750000 50.250000 15.302022
36.000000 50.250000 15.705040
36.250000 50.250000 15.597569
36.500000 50.250000 14.637656
36.750000 50.250000 15.634331
37.000000 50.250000 15.456741
37.250000 50.250000 15.389560
37.500000 50.250000 14.374839
37.750000 50.250000 15.314264
38.000000 50.250000 15.619987
38.250000 50.250000 15.783556
38.500000 50.250000 15.886603
38.750000 50.250000 15.613380
39.000000 50.250000 15.749501
39.250000 50.250000 14.869674
39.500000 50.250000 15.854206
39.750000 50.250000 15.311042
40.000000 50.250000 16.065950
40.250000 50.250000 15.202775
40.500000 50.250000 14.987153
40.750000 50.250000 15.470733
41.000000 50.250000 15.329125
41.250000 50.250000 15.172736
41.500000 50.250000 14.984881
41.750000 50.250000 15.136628
42.000000 50.250000 15.504936
42.250000 50.250000 14.878619
42.500000 50.250000 15.652367
42.750000 50.250000 15.120418
43.000000 50.250000 15.203184
43.250000 50.250000 14.683070
43.500000 50.250000 15.098726
43.750000 50.250000 15.149963
44.000000 50.250000 14.086355
44.250000 50.250000 15.116203
44.500000 50.250000 14.588075
44.750000 50.250000 15.344185
45.000000 50.250000 15.677319
45.250000 50.250000 14.780997
45.500000 50.250000 14.509381
45.750000 50.250000 14.443857
46.000000 50.250000 14.575756
46.250000 50.250000 14.500539
46.500000 50.250000 14.965936
46.750000 50.250000 14.600413
47.000000 50.250000 15.291833
47.250000 50.250000 14.520013
47.500000 50.250000 14.038039
47.750000 50.250000 14.529119
48.000000 50.250000 13.827552
48.250000 50.250000 15.399204
48.500000 50.250000 14.413595
48.750000 50.250000 13.877766
49.000000 50.250000 14.412100
49.250000 50.250000 14.738819
49.500000 50.250000 15.436937
49.750000 50.250000 14.174664
50.000000 50.250000 15.352022
50.250000 50.250000 14.335150
50.500000 50.250000 14.196757
50.750000 50.250000 14.902090
51.000000 50.250000 13.739235
51.250000 50.250000 14.582579
51.500000 50.250000 14.312160
51.750000 50.250000 15.188580
52.000000 50.250000 14.105664
52.250000 50.250000 14.439012
52.500000 50.250000 14.572474
52.750000 50.250000 13.961518
53.000000 50.250000 14.117439
53.250000 50.250000 13.664683
53.500000 50.250000 14.616366
53.750000 50.250000 14.125740
54.000000 50.250000 14.468719
54.250000 50.250000 14.470309
54.500000 50.250000 14.451770
54.750000 50.250000 14.275270
55.000000 50.250000 14.431211
55.250000 50.250000 14.198816
55.500000 50.250000 13.370223
55.750000 50.250000 13.508965
56.000000 50.250000 13.543641
56.250000 50.250000 13.462033
56.500000 50.250000 14.063272
56.750000 50.250000 13.561396
57.000000 50.250000 14.021215
57.250000 50.250000 13.969929
57.500000 50.250000 14.300826
57.750000 50.250000 14.168424
58.000000 50.250000 13.750037
58.250000 50.250000 14.200117
58.500000 50.250000 13.407867
58.750000 50.250000 14.266837
59.000000 50.250000 13.594616
59.250000 50.250000 13.283956
59.500000 50.250000 13.261488
59.750000 50.250000 13.035584
60.000000 50.250000 13.787441
60.250000 50.250000 13.351667
60.500000 50.250000 13.771011
60.750000 50.250000 13.040792
61.000000 50.250000 13.514462
61.250000 50.250000 14.088805
61.500000 50.250000 13.982718
61.750000 50.250000 13.311178
62.000000 50.250000 13.366471
62.250000 50.250000 13.596515
62.500000 50.250000 12.434271
62.750000 50.250000 13.663091
63.000000 50.250000 13.481566
63.250000 50.250000 13.326679
63.500000 50.250000 13.444773
63.750000 50.250000 13.348104
64.000000 50.250000 13.742748
64.250000 50.250000 13.235154
64.500000 50.250000 13.651077
64.750000 50.250000 12.952323
65.000000 50.250000 13.561191
65.250000 50.250000 13.540046
65.500000 50.250000 12.921663
65.750000 50.250000 13.284256
66.000000 50.250000 12.117042
66.250000 50.250000 13.448399
66.500000 50.250000 13.047671
66.750000 50.250000 12.499815
67.000000 50.250000 13.304414
67.250000 50.250000 12.808698
67.500000 50.250000 13.273055
67.750000 50.250000 12.244564
68.000000 50.250000 13.763667
68.250000 50.250000 13.017125
68.500000 50.250000 13.256379
68.750000 50.250000 12.546906
69.000000 50.250000 12.700682
69.250000 50.250000 12.873034
69.500000 50.250000 11.684193
69.750000 50.250000 12.955937
70.000000 50.250000 12.471736
70.250000 50.250000 12.974115
70.500000 50.250000 12.481321
70.750000 50.250000 11.784964
71.000000 50.250000 13.106214
71.250000 50.250000 12.366828
71.500000 50.250000 13.153292
71.750000 50.250000 12.788488
72.000000 50.250000 12.430985
72.250000 50.250000 12.168754
72.500000 50.250000 11.798326
72.750000 50.250000 13.177846
73.000000 50.250000 11.728937
73.250000 50.250000 13.295896
73.500000 50.250000 11.800915
73.750000 50.250000 12.861546
74.000000 50.250000 11.466814
74.250000 50.250000 10.965587
74.500000 50.250000 6.863646
74.750000 50.250000 2.728702
75.000000 50.250000 -1.439638
75.250000 50.250000 -5.641772
75.500000 50.250000 -9.878104
75.750000 50.250000 -9.143710
76.000000 50.250000 -10.553938
76.250000 50.250000 -9.095380
76.500000 50.250000 -11.514046
76.750000 50.250000 -9.196929
77.000000 50.250000 -11.113629
77.250000 50.250000 -9.224687
77.500000 50.250000 -8.423415
77.750000 50.250000 -11.316959
78.000000 50.250000 -8.999237
78.250000 50.250000 -10.480030
78.500000 50.250000 -8.081731
78.750000 50.250000 -9.874925
79.000000 50.250000 -10.520997
79.250000 50.250000 -11.034018
79.500000 50.250000 -12.652924
79.750000 50.250000 -11.161632
80.000000 50.250000 -12.634434
80.250000 50.250000 -10.255573
80.500000 50.250000 -11.053535
80.750000 50.250000 -10.646128
81.000000 50.250000 -9.450250
81.250000 50.250000 -12.624416
81.500000 50.250000 -9.969559
81.750000 50.250000 -12.314618
82.000000 50.250000 -9.859392
82.250000 50.250000 -11.082095
82.500000 50.250000 -12.140281
82.750000 50.250000 -8.504496
83.000000 50.250000 -11.534869
83.250000 50.250000 -9.388233
83.500000 50.250000 -12.690400
83.750000 50.250000 -10.954846
84.000000 50.250000 -10.942719
84.250000 50.250000 -11.999184
84.500000 50.250000 -9.319113
84.750000 50.250000 -11.785640
85.000000 50.250000 -9.479908
85.250000 50.250000 -11.323096
85.500000 50.250000 -9.943999
85.750000 50.250000 -10.756728
86.000000 50.250000 -12.145397
86.250000 50.250000 -9.434758
86.500000 50.250000 -12.393209
86.750000 50.250000 -9.191056
87.000000 50.250000 -12.551991
87.250000 50.250000 -12.210829
87.500000 50.250000 -10.059705
87.750000 50.250000 -11.535882
88.000000 50.250000 -8.766212
88.250000 50.250000 -12.532517
88.500000 50.250000 -10.159771
88.750000 50.250000 -11.994314
89.000000 50.250000 -10.437544
89.250000 50.250000 -9.694384
89.500000 50.250000 -11.943073
89.750000 50.250000 -8.163833
90.000000 50.250000 -11.946266
90.250000 50.250000 -10.011710
90.500000 50.250000 -12.887373
90.750000 50.250000 -12.361017
91.000000 50.250000 -10.157314
91.250000 50.250000 -13.396636
91.500000 50.250000 -9.769451
91.750000 50.250000 -13.007679
92.000000 50.250000 -10.569976
92.250000 50.250000 -12.000622
92.500000 50.250000 -11.410267
92.750000 50.250000 -10.454707
93.000000 50.250000 -13.588387
93.250000 50.250000 -11.054564
93.500000 50.250000 -12.993243
93.750000 50.250000 -10.811235
94.000000 50.250000 -12.431172
94.250000 50.250000 -8.254720
94.500000 50.250000 -4.111127
15.500000 50.500000 -0.891909
15.750000 50.500000 -1.785396
16.000000 50.500000 -2.680465
16.250000 50.500000 -4.259838
16.500000 50.500000 -4.466571
16.750000 50.500000 -3.929595
17.000000 50.500000 -5.781174
17.250000 50.500000 -3.613222
17.500000 50.500000 -5.023219
17.750000 50.500000 -3.003753
18.000000 50.500000 -4.651222
18.250000 50.500000 -4.390249
18.500000 50.500000 -2.674689
18.750000 50.500000 -5.306436
19.000000 50.500000 -3.672355
19.250000 50.500000 -4.406513
19.500000 50.500000 -3.026553
19.750000 50.500000 -4.199832
20.000000 50.500000 -5.271414
20.250000 50.500000 -3.981417
20.500000 50.500000 -5.967306
20.750000 50.500000 -3.741883
21.000000 50.500000 -5.060297
21.250000 50.500000 -4.326290
21.500000 50.500000 -5.062205
21.750000 50.500000 -4.678654
22.000000 50.500000 -3.037925
22.250000 50.500000 -6.718877
22.500000 50.500000 -3.885714
22.750000 50.500000 -6.654713
23.000000 50.500000 -5.360824
23.250000 50.500000 -5.192103
23.500000 50.500000 -4.144733
23.750000 50.500000 -3.116930
24.000000 50.500000 -4.059060
24.250000 50.500000 -3.242056
24.500000 50.500000 -5.946554
24.750000 50.500000 -4.086344
25.000000 50.500000 -4.324731
25.250000 50.500000 -5.478642
25.500000 50.500000 -3.793264
25.750000 50.500000 -5.566688
26.000000 50.500000 -3.620102
26.250000 50.500000 -4.907785
26.500000 50.500000 -3.855217
26.750000 50.500000 -4.044374
27.000000 50.500000 -4.408798
27.250000 50.500000 -3.388360
27.500000 50.500000 -3.960530
27.750000 50.500000 -3.509303
28.000000 50.500000 -5.870481
28.250000 50.500000 -3.689820
28.500000 50.500000 -4.324965
28.750000 50.500000 -4.712833
29.000000 50.500000 -3.274637
29.250000 50.500000 -6.175014
29.500000 50.500000 -5.114051
29.750000 50.500000 -6.116690
30.000000 50.500000 -4.124027
30.250000 50.500000 -5.288092
30.500000 50.500000 -5.240433
30.750000 50.500000 -3.938468
31.000000 50.500000 -5.766049
31.250000 50.500000 -3.252716
31.500000 50.500000 -5.248377
31.750000 50.500000 -3.953191
32.000000 50.500000 -4.978533
32.250000 50.500000 -6.305957
32.500000 50.500000 -4.134561
32.750000 50.500000 -8.356976
33.000000 50.500000 -4.189106
33.250000 50.500000 -7.290174
33.500000 50.500000 -4.014151
33.750000 50.500000 -2.719090
34.000000 50.500000 0.282111
34.250000 50.500000 3.265862
34.500000 50.500000 6.232318
34.750000 50.500000 9.181634
35.000000 50.500000 12.113961
35.250000 50.500000 15.029450
35.500000 50.500000 14.810343
35.750000 50.500000 14.155742
36.000000 50.500000 15.054162
36.250000 50.500000 14.336014
36.500000 50.500000 15.404233
36.750000 50.500000 15.003823
37.000000 50.500000 14.899178
37.250000 50.500000 15.086221
37.500000 50.500000 13.912552
37.750000 50.500000 14.949936
38.000000 50.500000 14.415653
38.250000 50.500000 15.776111
38.500000 50.500000 14.595302
38.750000 50.500000 14.865210
39.000000 50.500000 14.782362
39.250000 50.500000 14.320855
39.500000 50.500000 15.814802
39.750000 50.500000 14.581520
40.000000 50.500000 15.891646
40.250000 50.500000 14.636048
40.500000 50.500000 14.839530
40.750000 50.500000 14.542009
41.000000 50.500000 14.357149
41.250000 50.500000 15.031408
41.500000 50.500000 14.211285
41.750000 50.500000 15.156599
42.000000 50.500000 13.897270
42.250000 50.500000 14.817541
42.500000 50.500000 14.486511
42.750000 50.500000 14.073704
43.000000 50.500000 14.701646
43.250000 50.500000 13.018290
43.500000 50.500000 15.341659
43.750000 50.500000 13.889012
44.000000 50.500000 14.370464
44.250000 50.500000 13.876901
44.500000 50.500000 12.967719
44.750000 50.500000 14.281775
45.000000 50.500000 13.205934
45.250000 50.500000 14.548786
45.500000 50.500000 12.807452
45.750000 50.500000 14.349617
46.000000 50.500000 13.255421
46.250000 50.500000 13.514119
46.500000 50.500000 14.029674
46.750000 50.500000 12.859390
47.000000 50.500000 14.806489
47.250000 50.500000 12.602810
47.500000 50.500000 14.306222
47.750000 50.500000 13.915633
48.000000 50.500000 13.603490
48.250000 50.500000 14.565129
48.500000 50.500000 13.117805
48.750000 50.500000 14.437008
49.000000 50.500000 12.838444
49.250000 50.500000 14.490348
49.500000 50.500000 14.052554
49.750000 50.500000 13.769254
50.000000 50.500000 14.273762
50.250000 50.500000 12.814876
50.500000 50.500000 14.532233
50.750000 50.500000 13.146343
51.000000 50.500000 14.236243
51.250000 50.500000 13.680738
51.500000 50.500000 13.033839
51.750000 50.500000 13.992454
52.000000 50.500000 12.093166
52.250000 50.500000 14.335759
52.500000 50.500000 12.871530
52.750000 50.500000 14.256477
53.000000 50.500000 12.990084
53.250000 50.500000 12.207587
53.500000 50.500000 13.776023
53.750000 50.500000 12.063894
54.000000 50.500000 14.079994
54.250000 50.500000 12.468739
54.500000 50.500000 14.471668
54.750000 50.500000 13.875125
55.000000 50.500000 13.234976
55.250000 50.500000 13.647491
55.500000 50.500000 12.328393
55.750000 50.500000 13.484641
56.000000 50.500000 11.872285
56.250000 50.500000 13.932271
56.500000 50.500000 13.301830
56.750000 50.500000 12.161758
57.000000 50.500000 13.828606
57.250000 50.500000 12.022668
57.500000 50.500000 14.571093
57.750000 50.500000 12.135451
58.000000 50.500000 13.433331
58.250000 50.500000 12.320061
58.500000 50.500000 11.539495
58.750000 50.500000 13.298423
59.000000 50.500000 11.747863
59.250000 50.500000 13.099408
59.500000 50.500000 11.603504
59.750000 50.500000 12.099084
60.000000 50.500000 12.351796
60.250000 50.500000 12.248868
60.500000 50.500000 12.918949
60.750000 50.500000 11.795966
61.000000 50.500000 13.731577
61.250000 50.500000 12.604198
61.500000 50.500000 13.695827
61.750000 50.500000 13.028377
62.000000 50.500000 12.302077
62.250000 50.500000 13.542797
62.500000 50.500000 10.465263
62.750000 50.500000 13.506274
63.000000 50.500000 12.244295
63.250000 50.500000 13.164862
63.500000 50.500000 12.442377
63.750000 50.500000 12.220148
64.000000 50.500000 13.336388
64.250000 50.500000 11.535110
64.500000 50.500000 13.220597
64.750000 50.500000 11.520801
65.000000 50.500000 12.819839
65.250000 50.500000 12.479830
65.500000 50.500000 11.609518
65.750000 50.500000 12.692677
66.000000 50.500000 11.485436
66.250000 50.500000 13.119045
66.500000 50.500000 11.997244
66.750000 50.500000 12.015898
67.000000 50.500000 11.585675
67.250000 50.500000 10.635927
67.500000 50.500000 13.187615
67.750000 50.500000 11.122923
68.000000 50.500000 12.915750
68.250000 50.500000 12.298795
68.500000 50.500000 11.977946
68.750000 50.500000 11.708657
69.000000 50.500000 11.283543
69.250000 50.500000 12.562979
69.500000 50.500000 11.181397
69.750000 50.500000 12.929449
70.000000 50.500000 12.067099
70.250000 50.500000 12.109126
70.500000 50.500000 11.947656
70.750000 50.500000 10.988164
71.000000 50.500000 12.480173
71.250000 50.500000 11.024529
71.500000 50.500000 11.887614
71.750000 50.500000 12.127666
72.000000 50.500000 11.973006
72.250000 50.500000 11.759288
72.500000 50.500000 10.794744
72.750000 50.500000 12.052007
73.000000 50.500000 10.756874
73.250000 50.500000 11.825109
73.500000 50.500000 11.577426
73.750000 50.500000 11.838735
74.000000 50.500000 11.054053
74.250000 50.500000 11.034812
74.500000 50.500000 6.902123
74.750000 50.500000 2.735916
75.000000 50.500000 -1.464210
75.250000 50.500000 -5.698665
75.500000 50.500000 -9.967861
75.750000 50.500000 -10.777976
76.000000 50.500000 -10.788568
76.250000 50.500000 -9.923766
76.500000 50.500000 -10.451113
76.750000 50.500000 -11.271277
77.000000 50.500000 -12.608043
77.250000 50.500000 -11.838049
77.500000 50.500000 -10.975470
77.750000 50.500000 -10.848958
78.000000 50.500000 -10.507388
78.250000 50.500000 -11.719253
78.500000 50.500000 -9.806159
78.750000 50.500000 -11.281792
79.000000 50.500000 -10.052999
79.250000 50.500000 -11.459826
79.500000 50.500000 -9.548385
79.750000 50.500000 -9.908704
80.000000 50.500000 -9.907110
80.250000 50.500000 -10.931008
80.500000 50.500000 -10.923128
80.750000 50.500000 -10.861889
81.000000 50.500000 -12.990402
81.250000 50.500000 -11.985384
81.500000 50.500000 -10.567897
81.750000 50.500000 -9.863868
82.000000 50.500000 -10.506442
82.250000 50.500000 -12.068072
82.500000 50.500000 -12.410280
82.750000 50.500000 -13.060282
83.000000 50.500000 -12.876764
83.250000 50.500000 -12.129767
83.500000 50.500000 -11.737082
83.750000 50.500000 -10.428146
84.000000 50.500000 -11.335194
84.250000 50.500000 -10.256427
84.500000 50.500000 -13.960839
84.750000 50.500000 -11.555529
85.000000 50.500000 -10.692899
85.250000 50.500000 -10.601345
85.500000 50.500000 -10.215254
85.750000 50.500000 -11.949872
86.000000 50.500000 -10.048121
86.250000 50.500000 -10.563770
86.500000 50.500000 -10.734364
86.750000 50.500000 -12.153681
87.000000 50.500000 -10.569772
87.250000 50.500000 -10.290818
87.500000 50.500000 -12.240880
87.750000 50.500000 -10.318555
88.000000 50.500000 -11.815307
88.250000 50.500000 -10.367471
88.500000 50.500000 -10.403714
88.750000 50.500000 -12.549741
89.000000 50.500000 -10.114855
89.250000 50.500000 -12.011141
89.500000 50.500000 -11.576091
89.750000 50.500000 -11.507826
90.000000 50.500000 -10.880828
90.250000 50.500000 -11.268175
90.500000 50.500000 -12.255139
90.750000 50.500000 -10.780500
91.000000 50.500000 -13.068379
91.250000 50.500000 -11.174260
91.500000 50.500000 -12.331794
91.750000 50.500000 -12.017757
92.000000 50.500000 -12.869921
92.250000 50.500000 -12.730509
92.500000 50.500000 -11.077942
92.750000 50.500000 -11.863092
93.000000 50.500000 -10.379346
93.250000 50.500000 -12.515100
93.500000 50.500000 -12.321707
93.750000 50.500000 -12.956620
94.000000 50.500000 -12.109446
94.250000 50.500000 -6.180846
94.500000 50.500000 -2.052189
15.500000 50.750000 -1.429936
15.750000 50.750000 -2.863919
16.000000 50.750000 -4.301966
16.250000 50.750000 -4.226405
16.500000 50.750000 -5.261814
16.750000 50.750000 -3.699502
17.000000 50.750000 -5.254340
17.250000 50.750000 -4.191285
17.500000 50.750000 -4.569529
17.750000 50.750000 -6.297727
18.000000 50.750000 -5.053108
18.250000 50.750000 -5.963124
18.500000 50.750000 -4.211732
18.750000 50.750000 -6.051307
19.000000 50.750000 -4.371112
19.250000 50.750000 -5.698434
19.500000 50.750000 -4.839761
19.750000 50.750000 -5.611732
20.000000 50.750000 -5.316326
20.250000 50.750000 -5.112443
20.500000 50.750000 -6.210286
20.750000 50.750000 -4.570615
21.000000 50.750000 -5.055457
21.250000 50.750000 -5.260943
21.500000 50.750000 -4.218341
21.750000 50.750000 -6.343707
22.000000 50.750000 -5.374309
22.250000 50.750000 -6.430459
22.500000 50.750000 -4.410537
22.750000 50.750000 -6.193729
23.000000 50.750000 -5.502129
23.250000 50.750000 -7.060500
23.500000 50.750000 -7.040875
23.750000 50.750000 -6.770709
24.000000 50.750000 -6.299093
24.250000 50.750000 -4.574451
24.500000 50.750000 -6.792609
24.750000 50.750000 -4.385259
25.000000 50.750000 -5.720089
25.250000 50.750000 -7.984330
25.500000 50.750000 -6.624179
25.750000 50.750000 -6.719951
26.000000 50.750000 -5.018732
26.250000 50.750000 -7.452745
26.500000 50.750000 -5.769510
26.750000 50.750000 -7.114086
27.000000 50.750000 -6.159985
27.250000 50.750000 -7.529881
27.500000 50.750000 -7.189864
27.750000 50.750000 -4.754507
28.000000 50.750000 -6.246267
28.250000 50.750000 -4.551836
28.500000 50.750000 -7.768816
28.750000 50.750000 -5.825850
29.000000 50.750000 -6.899551
29.250000 50.750000 -7.450721
29.500000 50.750000 -5.960390
29.750000 50.750000 -6.694247
30.000000 50.750000 -5.339856
30.250000 50.750000 -6.237026
30.500000 50.750000 -5.161489
30.750000 50.750000 -4.746864
31.000000 50.750000 -5.625018
31.250000 50.750000 -3.570846
31.500000 50.750000 -7.250265
31.750000 50.750000 -5.154596
32.000000 50.750000 -6.678553
32.250000 50.750000 -5.467826
32.500000 50.750000 -6.179844
32.750000 50.750000 -7.609484
33.000000 50.750000 -4.641843
33.250000 50.750000 -7.152781
33.500000 50.750000 -5.010316
33.750000 50.750000 -1.835936
34.000000 50.750000 1.089146
34.250000 50.750000 3.997629
34.500000 50.750000 6.889657
34.750000 50.750000 9.765373
35.000000 50.750000 12.624919
35.250000 50.750000 15.468434
35.500000 50.750000 14.465077
35.750000 50.750000 14.098272
36.000000 50.750000 15.248824
36.250000 50.750000 14.083193
36.500000 50.750000 16.172390
36.750000 50.750000 14.454690
37.000000 50.750000 15.338396
37.250000 50.750000 14.809633
37.500000 50.750000 13.817035
37.750000 50.750000 15.434645
38.000000 50.750000 14.056544
38.250000 50.750000 16.125927
38.500000 50.750000 13.980846
38.750000 50.750000 15.129616
39.000000 50.750000 14.628760
39.250000 50.750000 14.276975
39.500000 50.750000 15.524040
39.750000 50.750000 14.098502
40.000000 50.750000 15.824798
40.250000 50.750000 14.291634
40.500000 50.750000 14.621334
40.750000 50.750000 14.272546
41.000000 50.750000 14.402700
41.250000 50.750000 14.966560
41.500000 50.750000 13.387435
41.750000 50.750000 15.242043
42.000000 50.750000 13.829309
42.250000 50.750000 15.201726
42.500000 50.750000 14.546556
42.750000 50.750000 14.253116
43.000000 50.750000 14.813385
43.250000 50.750000 12.560802
43.500000 50.750000 14.926614
43.750000 50.750000 13.660975
44.000000 50.750000 14.590612
44.250000 50.750000 13.637731
44.500000 50.750000 12.980334
44.750000 50.750000 13.845970
45.000000 50.750000 13.493564
45.250000 50.750000 14.183105
45.500000 50.750000 12.615650
45.750000 50.750000 13.996457
46.000000 50.750000 12.867105
46.250000 50.750000 13.524707
46.500000 50.750000 13.680181
46.750000 50.750000 12.860904
47.000000 50.750000 13.640737
47.250000 50.750000 12.466862
47.500000 50.750000 14.320822
47.750000 50.750000 14.100812
48.000000 50.750000 13.481152
48.250000 50.750000 13.758762
48.500000 50.750000 13.274283
48.750000 50.750000 14.262698
49.000000 50.750000 13.249311
49.250000 50.750000 14.035821
49.500000 50.750000 13.846390
49.750000 50.750000 13.239765
50.000000 50.750000 13.878336
50.250000 50.750000 13.236530
50.500000 50.750000 13.516006
50.750000 50.750000 13.385522
51.000000 50.750000 14.037598
51.250000 50.750000 13.795098
51.500000 50.750000 13.292006
51.750000 50.750000 13.444398
52.000000 50.750000 12.899978
52.250000 50.750000 13.690640
52.500000 50.750000 13.236973
52.750000 50.750000 13.720005
53.000000 50.750000 12.550169
53.250000 50.750000 12.934658
53.500000 50.750000 13.315220
53.750000 50.750000 12.874014
54.000000 50.750000 12.894535
54.250000 50.750000 13.305964
54.500000 50.750000 13.572701
54.750000 50.750000 13.315259
55.000000 50.750000 13.027255
55.250000 50.750000 13.063056
55.500000 50.750000 12.143698
55.750000 50.750000 12.741081
56.000000 50.750000 12.016491
56.250000 50.750000 13.289932
56.500000 50.750000 12.923560
56.750000 50.750000 12.351296
57.000000 50.750000 12.728642
57.250000 50.750000 12.937066
57.500000 50.750000 13.734706
57.750000 50.750000 12.752732
58.000000 50.750000 12.879644
58.250000 50.750000 12.279526
58.500000 50.750000 12.420328
58.750000 50.750000 12.386333
59.000000 50.750000 12.254930
59.250000 50.750000 12.049169
59.500000 50.750000 12.297756
59.750000 50.750000 11.879748
60.000000 50.750000 12.051725
60.250000 50.750000 12.942057
60.500000 50.750000 12.174818
60.750000 50.750000 12.493612
61.000000 50.750000 12.381524
61.250000 50.750000 12.486921
61.500000 50.750000 13.049723
61.750000 50.750000 12.266958
62.000000 50.750000 12.632103
62.250000 50.750000 12.710874
62.500000 50.750000 11.708477
62.750000 50.750000 12.389821
63.000000 50.750000 11.481294
63.250000 50.750000 13.345609
63.500000 50.750000 11.841287
63.750000 50.750000 12.525082
64.000000 50.750000 12.069646
64.250000 50.750000 12.623158
64.500000 50.750000 12.209482
64.750000 50.750000 10.849072
65.000000 50.750000 12.202829
65.250000 50.750000 11.550493
65.500000 50.750000 12.295554
65.750000 50.750000 11.318331
66.000000 50.750000 12.292178
66.250000 50.750000 12.353609
66.500000 50.750000 11.435389
66.750000 50.750000 12.405885
67.000000 50.750000 11.288462
67.250000 50.750000 11.718308
67.500000 50.750000 11.952797
67.750000 50.750000 11.495342
68.000000 50.750000 12.251619
68.250000 50.750000 11.885571
68.500000 50.750000 11.980913
68.750000 50.750000 11.119839
69.000000 50.750000 12.042183
69.250000 50.750000 11.585844
69.500000 50.750000 11.813377
69.750000 50.750000 11.762974
70.000000 50.750000 11.033237
70.250000 50.750000 11.817945
70.500000 50.750000 11.118849
70.750000 50.750000 12.008418
71.000000 50.750000 11.428463
71.250000 50.750000 11.165824
71.500000 50.750000 11.739072
71.750000 50.750000 10.346368
72.000000 50.750000 12.250710
72.250000 50.750000 10.514574
72.500000 50.750000 11.216496
72.750000 50.750000 11.156393
73.000000 50.750000 11.214610
73.250000 50.750000 11.496781
73.500000 50.750000 11.249795
73.750000 50.750000 11.785057
74.000000 50.750000 10.791338
74.250000 50.750000 11.621211
74.500000 50.750000 7.000641
74.750000 50.750000 2.338118
75.000000 50.750000 -2.366921
75.250000 50.750000 -7.115052
75.500000 50.750000 -11.906858
75.750000 50.750000 -12.721910
76.000000 50.750000 -10.935343
76.250000 50.750000 -12.295202
76.500000 50.750000 -10.707427
76.750000 50.750000 -13.773932
77.000000 50.750000 -11.520767
77.250000 50.750000 -10.966590
77.500000 50.750000 -12.744756
77.750000 50.750000 -10.565949
78.000000 50.750000 -13.606055
78.250000 50.750000 -9.996064
78.500000 50.750000 -11.185534
78.750000 50.750000 -10.903673
79.000000 50.750000 -10.654619
79.250000 50.750000 -11.588636
79.500000 50.750000 -9.781941
79.750000 50.750000 -11.895720
80.000000 50.750000 -11.593650
80.250000 50.750000 -11.202351
80.500000 50.750000 -11.877973
80.750000 50.750000 -12.870540
81.000000 50.750000 -12.095794
81.250000 50.750000 -9.945035
81.500000 50.750000 -11.259176
81.750000 50.750000 -10.291492
82.000000 50.750000 -13.477295
82.250000 50.750000 -11.930634
82.500000 50.750000 -10.372510
82.750000 50.750000 -12.358063
83.000000 50.750000 -10.891472
83.250000 50.750000 -12.129417
83.500000 50.750000 -10.885900
83.750000 50.750000 -13.643265
84.000000 50.750000 -12.149654
84.250000 50.750000 -11.323798
84.500000 50.750000 -11.752931
84.750000 50.750000 -10.823397
85.000000 50.750000 -13.168341
85.250000 50.750000 -10.489045
85.500000 50.750000 -11.604189
85.750000 50.750000 -12.077376
86.000000 50.750000 -11.748461
86.250000 50.750000 -13.489760
86.500000 50.750000 -11.207651
86.750000 50.750000 -11.837936
87.000000 50.750000 -11.436736
87.250000 50.750000 -12.515164
87.500000 50.750000 -12.438335
87.750000 50.750000 -11.886144
88.000000 50.750000 -12.915723
88.250000 50.750000 -11.023030
88.500000 50.750000 -13.427106
88.750000 50.750000 -12.281313
89.000000 50.750000 -12.070826
89.250000 50.750000 -11.574856
89.500000 50.750000 -11.459757
89.750000 50.750000 -12.852338
90.000000 50.750000 -11.233351
90.250000 50.750000 -14.099915
90.500000 50.750000 -11.878857
90.750000 50.750000 -15.385213
91.000000 50.750000 -13.381099
91.250000 50.750000 -11.519529
91.500000 50.750000 -14.354746
91.750000 50.750000 -12.615506
92.000000 50.750000 -13.364549
92.250000 50.750000 -12.019465
92.500000 50.750000 -13.387711
92.750000 50.750000 -12.954566
93.000000 50.750000 -12.658298
93.250000 50.750000 -14.812199
93.500000 50.750000 -11.244967
93.750000 50.750000 -13.350880
94.000000 50.750000 -11.979326
94.250000 50.750000 -5.955484
15.500000 51.000000 -2.085079
15.750000 51.000000 -3.521413
16.000000 51.000000 -3.459461
16.250000 51.000000 -5.181573
16.500000 51.000000 -5.236204
16.750000 51.000000 -5.136312
17.000000 51.000000 -5.529014
17.250000 51.000000 -4.867270
17.500000 51.000000 -5.610613
17.750000 51.000000 -4.660141
18.000000 51.000000 -5.888663
18.250000 51.000000 -5.001456
18.500000 51.000000 -4.999907
18.750000 51.000000 -5.559800
19.000000 51.000000 -4.905564
19.250000 51.000000 -6.162322
19.500000 51.000000 -4.153648
19.750000 51.000000 -6.057726
20.000000 51.000000 -5.262807
20.250000 51.000000 -6.047131
20.500000 51.000000 -5.947212
20.750000 51.000000 -4.314389
21.000000 51.000000 -5.866873
21.250000 51.000000 -4.505620
21.500000 51.000000 -5.273235
21.750000 51.000000 -5.011433
22.000000 51.000000 -5.448786
22.250000 51.000000 -6.056320
22.500000 51.000000 -4.748495
22.750000 51.000000 -6.242137
23.000000 51.000000 -5.282519
23.250000 51.000000 -6.402513
23.500000 51.000000 -5.795177
23.750000 51.000000 -6.074755
24.000000 51.000000 -6.136817
24.250000 51.000000 -5.573674
24.500000 51.000000 -6.924657
24.750000 51.000000 -4.698576
25.000000 51.000000 -6.301745
25.250000 51.000000 -6.530324
25.500000 51.000000 -6.585748
25.750000 51.000000 -6.393603
26.000000 51.000000 -6.888807
26.250000 51.000000 -6.590005
26.500000 51.000000 -5.418665
26.750000 51.000000 -6.833910
27.000000 51.000000 -5.957472
27.250000 51.000000 -6.687651
27.500000 51.000000 -6.385637
27.750000 51.000000 -6.581892
28.000000 51.000000 -6.187542
28.250000 51.000000 -5.231270
28.500000 51.000000 -6.955195
28.750000 51.000000 -5.128696
29.000000 51.000000 -6.535284
29.250000 51.000000 -5.835056
29.500000 51.000000 -6.554807
29.750000 51.000000 -6.581928
30.000000 51.000000 -5.727441
30.250000 51.000000 -6.044983
30.500000 51.000000 -4.857578
30.750000 51.000000 -6.854606
31.000000 51.000000 -4.503952
31.250000 51.000000 -1.709885
31.500000 51.000000 -6.223392
31.750000 51.000000 -5.336986
32.000000 51.000000 -6.904050
32.250000 51.000000 -4.734643
32.500000 51.000000 -7.197657
32.750000 51.000000 -6.737185
33.000000 51.000000 -6.488073
33.250000 51.000000 -6.885774
33.500000 51.000000 -5.140893
33.750000 51.000000 -1.484453
34.000000 51.000000 1.186380
34.250000 51.000000 3.843363
34.500000 51.000000 6.486604
34.750000 51.000000 9.116214
35.000000 51.000000 11.732301
35.250000 51.000000 14.334972
35.500000 51.000000 13.687707
35.750000 51.000000 15.759172
36.000000 51.000000 13.431743
36.250000 51.000000 16.294445
36.500000 51.000000 13.769982
36.750000 51.000000 14.426349
37.000000 51.000000 14.437164
37.250000 51.000000 13.459922
37.500000 51.000000 13.788597
37.750000 51.000000 13.423605
38.000000 51.000000 16.851032
38.250000 51.000000 13.418970
38.500000 51.000000 13.656678
38.750000 51.000000 14.420680
39.000000 51.000000 14.256494
39.250000 51.000000 17.300329
39.500000 51.000000 13.691482
39.750000 51.000000 15.891020
40.000000 51.000000 15.156439
40.250000 51.000000 14.648448
40.500000 51.000000 13.618431
40.750000 51.000000 13.521848
41.000000 51.000000 14.275708
41.250000 51.000000 12.632301
41.500000 51.000000 14.127841
41.750000 51.000000 12.776238
42.000000 51.000000 13.583902
42.250000 51.000000 15.618806
42.500000 51.000000 14.220778
42.750000 51.000000 16.065905
43.000000 51.000000 13.261710
43.250000 51.000000 14.705756
43.500000 51.000000 13.644753
43.750000 51.000000 14.082430
44.000000 51.000000 13.659301
44.250000 51.000000 11.863383
44.500000 51.000000 14.319438
44.750000 51.000000 13.235758
45.000000 51.000000 15.840893
45.250000 51.000000 12.548772
45.500000 51.000000 13.372842
45.750000 51.000000 13.346842
46.000000 51.000000 12.232021
46.250000 51.000000 13.792025
46.500000 51.000000 12.563952
46.750000 51.000000 14.892564
47.000000 51.000000 12.631266
47.250000 51.000000 13.002900
47.500000 51.000000 14.273296
47.750000 51.000000 13.255968
48.000000 51.000000 16.884232
48.250000 51.000000 12.841718
48.500000 51.000000 16.112663
48.750000 51.000000 13.264032
49.000000 51.000000 13.588055
49.250000 51.000000 14.355104
49.500000 51.000000 13.247849
49.750000 51.000000 14.714700
50.000000 51.000000 11.977025
50.250000 51.000000 15.904535
50.500000 51.000000 13.428513
50.750000 51.000000 13.869233
51.000000 51.000000 14.218044
51.250000 51.000000 12.967040
51.500000 51.000000 13.995715
51.750000 51.000000 11.266477
52.000000 51.000000 13.560018
52.250000 51.000000 12.396806
52.500000 51.000000 12.753007
52.750000 51.000000 13.903049
53.000000 51.000000 12.186671
53.250000 51.000000 15.704566
53.500000 51.000000 11.665225
53.750000 51.000000 13.413974
54.000000 51.000000 13.030458
54.250000 51.000000 12.656966
54.500000 51.000000 15.251987
54.750000 51.000000 13.808350
55.000000 51.000000 15.494160
55.250000 51.000000 11.809136
55.500000 51.000000 13.607630
55.750000 51.000000 13.706636
56.000000 51.000000 12.172645
56.250000 51.000000 12.719702
56.500000 51.000000 12.325242
56.750000 51.000000 14.834791
57.000000 51.000000 12.501501
57.250000 51.000000 15.061459
57.500000 51.000000 13.364097
57.750000 51.000000 12.755925
58.000000 51.000000 12.801904
58.250000 51.000000 11.942623
58.500000 51.000000 13.024448
58.750000 51.000000 11.704532
59.000000 51.000000 12.772909
59.250000 51.000000 12.792394
59.500000 51.000000 12.232091
59.750000 51.000000 12.161115
60.000000 51.000000 10.888093
60.250000 51.000000 12.882569
60.500000 51.000000 10.774478
60.750000 51.000000 13.429503
61.000000 51.000000 13.015224
61.250000 51.000000 12.325356
61.500000 51.000000 13.201017
61.750000 51.000000 11.244569
62.000000 51.000000 14.253305
62.250000 51.000000 12.675389
62.500000 51.000000 13.257633
62.750000 51.000000 11.968301
63.000000 51.000000 11.327484
63.250000 51.000000 13.779122
63.500000 51.000000 12.161357
63.750000 51.000000 14.155474
64.000000 51.000000 11.981249
64.250000 51.000000 14.029374
64.500000 51.000000 12.113812
64.750000 51.000000 11.727929
65.000000 51.000000 12.801955
65.250000 51.000000 11.268354
65.500000 51.000000 13.831716
65.750000 51.000000 12.881285
66.000000 51.000000 11.580716
66.250000 51.000000 11.186150
66.500000 51.000000 12.337285
66.750000 51.000000 15.071423
67.000000 51.000000 11.744930
67.250000 51.000000 13.085823
67.500000 51.000000 10.960696
67.750000 51.000000 13.417127
68.000000 51.000000 13.095355
68.250000 51.000000 13.515922
68.500000 51.000000 14.522221
68.750000 51.000000 11.864115
69.000000 51.000000 14.235009
69.250000 51.000000 13.466902
69.500000 51.000000 11.939240
69.750000 51.000000 13.447076
70.000000 51.000000 11.896566
70.250000 51.000000 13.530157
70.500000 51.000000 11.705306
70.750000 51.000000 13.010667
71.000000 51.000000 12.750591
71.250000 51.000000 12.070097
71.500000 51.000000 12.468455
71.750000 51.000000 11.425202
72.000000 51.000000 13.819864
72.250000 51.000000 12.095701
72.500000 51.000000 11.852928
72.750000 51.000000 11.088266
73.000000 51.000000 12.423173
73.250000 51.000000 11.663614
73.500000 51.000000 12.068089
73.750000 51.000000 13.182478
74.000000 51.000000 10.192218
74.250000 51.000000 11.252935
74.500000 51.000000 6.738209
74.750000 51.000000 2.183429
75.000000 51.000000 -2.411932
75.250000 51.000000 -7.048407
75.500000 51.000000 -11.726542
75.750000 51.000000 -10.753011
76.000000 51.000000 -10.079232
76.250000 51.000000 -11.609987
76.500000 51.000000 -10.269994
76.750000 51.000000 -11.997535
77.000000 51.000000 -9.414253
77.250000 51.000000 -11.018589
77.500000 51.000000 -10.296186
77.750000 51.000000 -8.830440
78.000000 51.000000 -11.393485
78.250000 51.000000 -7.084667
78.500000 51.000000 -10.709715
78.750000 51.000000 -8.543529
79.000000 51.000000 -10.192355
79.250000 51.000000 -10.092950
79.500000 51.000000 -8.040960
79.750000 51.000000 -11.538356
80.000000 51.000000 -10.876946
80.250000 51.000000 -10.785397
80.500000 51.000000 -10.169787
80.750000 51.000000 -11.665093
81.000000 51.000000 -10.563225
81.250000 51.000000 -8.913598
81.500000 51.000000 -11.652007
81.750000 51.000000 -7.403961
82.000000 51.000000 -11.171248
82.250000 51.000000 -10.634622
82.500000 51.000000 -9.942202
82.750000 51.000000 -11.316613
83.000000 51.000000 -10.543861
83.250000 51.000000 -11.675120
83.500000 51.000000 -10.252609
83.750000 51.000000 -12.041615
84.000000 51.000000 -10.427780
84.250000 51.000000 -10.673738
84.500000 51.000000 -10.867805
84.750000 51.000000 -9.858348
85.000000 51.000000 -11.967927
85.250000 51.000000 -8.267592
85.500000 51.000000 -11.419809
85.750000 51.000000 -10.612145
86.000000 51.000000 -11.555658
86.250000 51.000000 -10.763390
86.500000 51.000000 -9.998079
86.750000 51.000000 -12.416618
87.000000 51.000000 -10.156734
87.250000 51.000000 -11.840175
87.500000 51.000000 -10.464203
87.750000 51.000000 -11.516430
88.000000 51.000000 -12.057958
88.250000 51.000000 -10.009251
88.500000 51.000000 -12.465310
88.750000 51.000000 -11.967026
89.000000 51.000000 -11.820000
89.250000 51.000000 -10.351990
89.500000 51.000000 -11.092640
89.750000 51.000000 -12.026105
90.000000 51.000000 -10.247256
90.250000 51.000000 -12.512975
90.500000 51.000000 -10.747414
90.750000 51.000000 -13.278062
91.000000 51.000000 -11.895998
91.250000 51.000000 -11.994913
91.500000 51.000000 -13.017727
